ply
format ascii 1.0
element vertex 691
property float x
property float y
property float z
property uchar red
property uchar green
property uchar blue
property int layer
end_header
1.4848425865173147 2.2332109451293713 -0.07950577735900835 0 0 255 0
1.4848425865173147 2.4332109451293706 -0.07950577735900835 0 0 255 0
1.4848425865173147 2.5332109451293703 -0.07950577735900835 0 0 255 0
1.4848425865173147 2.7832109451293694 -0.07950577735900835 0 0 255 0
1.4848425865173147 3.433210945129367 0.22049422264099192 0 0 255 0
1.5348425865173145 -2.416789054870612 -0.3795057773590086 0 0 255 0
1.5348425865173145 -2.3667890548706123 -0.3795057773590086 0 0 255 0
1.5348425865173145 -2.3167890548706125 -0.42950577735900863 0 0 255 0
1.5348425865173145 -2.2667890548706127 -0.42950577735900863 0 0 255 0
1.5348425865173145 -1.016789054870617 -0.07950577735900835 0 0 255 0
1.5348425865173145 -1.016789054870617 -0.0295057773590083 0 0 255 0
1.5348425865173145 -0.9667890548706172 -0.07950577735900835 0 0 255 0
1.5348425865173145 -0.9667890548706172 -0.0295057773590083 0 0 255 0
1.5348425865173145 -0.9667890548706172 0.020494222640991745 0 0 255 0
1.5348425865173145 -0.9167890548706173 -0.0295057773590083 0 0 255 0
1.5348425865173145 -0.9167890548706173 0.020494222640991745 0 0 255 0
1.5348425865173145 -0.9167890548706173 0.07049422264099178 0 0 255 0
1.5348425865173145 -0.8667890548706175 -0.0295057773590083 0 0 255 0
1.5348425865173145 -0.8667890548706175 0.020494222640991745 0 0 255 0
1.5348425865173145 -0.8667890548706175 0.07049422264099178 0 0 255 0
1.5348425865173145 -0.8167890548706177 -0.0295057773590083 0 0 255 0
1.5348425865173145 -0.8167890548706177 0.020494222640991745 0 0 255 0
1.5348425865173145 -0.8167890548706177 0.07049422264099178 0 0 255 0
1.5348425865173145 -0.7667890548706179 -0.0295057773590083 0 0 255 0
1.5348425865173145 -0.7667890548706179 0.020494222640991745 0 0 255 0
1.5348425865173145 -0.7167890548706181 -0.0295057773590083 0 0 255 0
1.5348425865173145 -0.5167890548706188 -0.07950577735900835 0 0 255 0
1.5348425865173145 -0.5167890548706188 -0.0295057773590083 0 0 255 0
1.5348425865173145 -0.5167890548706188 0.020494222640991745 0 0 255 0
1.5348425865173145 -0.46678905487061895 -0.1295057773590084 0 0 255 0
1.5348425865173145 -0.46678905487061895 -0.07950577735900835 0 0 255 0
1.5348425865173145 -0.46678905487061895 -0.0295057773590083 0 0 255 0
1.5348425865173145 -0.46678905487061895 0.020494222640991745 0 0 255 0
1.5348425865173145 -0.4167890548706191 -0.1295057773590084 0 0 255 0
1.5348425865173145 -0.4167890548706191 -0.07950577735900835 0 0 255 0
1.5348425865173145 -0.4167890548706191 -0.0295057773590083 0 0 255 0
1.5348425865173145 -0.4167890548706191 0.020494222640991745 0 0 255 0
1.5348425865173145 -0.4167890548706191 0.07049422264099178 0 0 255 0
1.5348425865173145 -0.3667890548706193 -0.1295057773590084 0 0 255 0
1.5348425865173145 -0.3667890548706193 -0.07950577735900835 0 0 255 0
1.5348425865173145 -0.3667890548706193 -0.0295057773590083 0 0 255 0
1.5348425865173145 -0.3667890548706193 0.020494222640991745 0 0 255 0
1.5348425865173145 -0.3667890548706193 0.07049422264099178 0 0 255 0
1.5348425865173145 -0.3167890548706195 -0.07950577735900835 0 0 255 0
1.5348425865173145 -0.3167890548706195 -0.0295057773590083 0 0 255 0
1.5348425865173145 -0.3167890548706195 0.020494222640991745 0 0 255 0
1.5348425865173145 -0.3167890548706195 0.07049422264099178 0 0 255 0
1.5348425865173145 -0.26678905487061966 -0.07950577735900835 0 0 255 0
1.5348425865173145 -0.26678905487061966 -0.0295057773590083 0 0 255 0
1.5348425865173145 -0.26678905487061966 0.020494222640991745 0 0 255 0
1.5348425865173145 -0.26678905487061966 0.07049422264099178 0 0 255 0
1.5348425865173145 -0.21678905487061986 -0.07950577735900835 0 0 255 0
1.5348425865173145 -0.21678905487061986 -0.0295057773590083 0 0 255 0
1.5348425865173145 -0.16678905487062004 -0.07950577735900835 0 0 255 0
1.5348425865173145 -0.16678905487062004 -0.0295057773590083 0 0 255 0
1.5348425865173145 -0.11678905487062022 -0.07950577735900835 0 0 255 0
1.5348425865173145 -0.0667890548706204 -0.07950577735900835 0 0 255 0
1.5348425865173145 -0.0667890548706204 -0.0295057773590083 0 0 255 0
1.5348425865173145 -0.016789054870620566 -0.07950577735900835 0 0 255 0
1.5348425865173145 -0.016789054870620566 -0.0295057773590083 0 0 255 0
1.5348425865173145 0.1332109451293789 -0.0295057773590083 0 0 255 0
1.5348425865173145 0.18321094512937872 -0.07950577735900835 0 0 255 0
1.5348425865173145 0.18321094512937872 -0.0295057773590083 0 0 255 0
1.5348425865173145 0.23321094512937854 -0.0295057773590083 0 0 255 0
1.5348425865173145 0.2832109451293784 -0.0295057773590083 0 0 255 0
1.5348425865173145 1.4332109451293742 -0.0295057773590083 0 0 255 0
1.5348425865173145 1.483210945129374 -0.07950577735900835 0 0 255 0
1.5348425865173145 1.5332109451293738 -0.07950577735900835 0 0 255 0
1.5348425865173145 1.5832109451293737 -0.07950577735900835 0 0 255 0
1.5348425865173145 1.6332109451293735 -0.07950577735900835 0 0 255 0
1.5348425865173145 1.7332109451293731 -0.07950577735900835 0 0 255 0
1.5348425865173145 1.783210945129373 -0.07950577735900835 0 0 255 0
1.5348425865173145 1.8332109451293728 -0.07950577735900835 0 0 255 0
1.5348425865173145 2.7832109451293694 -0.07950577735900835 0 0 255 0
1.5348425865173145 2.883210945129369 -0.07950577735900835 0 0 255 0
1.5848425865173144 -2.5167890548706118 -0.2795057773590085 0 0 255 0
1.5848425865173144 -2.5167890548706118 -0.22950577735900848 0 0 255 0
1.5848425865173144 -2.5167890548706118 -0.17950577735900844 0 0 255 0
1.5848425865173144 -2.466789054870612 -0.2795057773590085 0 0 255 0
1.5848425865173144 -2.466789054870612 -0.22950577735900848 0 0 255 0
1.5848425865173144 -2.416789054870612 -0.42950577735900863 0 0 255 0
1.5848425865173144 -2.416789054870612 -0.3795057773590086 0 0 255 0
1.5848425865173144 -2.416789054870612 -0.32950577735900854 0 0 255 0
1.5848425865173144 -2.416789054870612 -0.22950577735900848 0 0 255 0
1.5848425865173144 -2.3667890548706123 -0.4795057773590087 0 0 255 0
1.5848425865173144 -2.3667890548706123 -0.42950577735900863 0 0 255 0
1.5848425865173144 -2.3667890548706123 -0.3795057773590086 0 0 255 0
1.5848425865173144 -2.3667890548706123 -0.32950577735900854 0 0 255 0
1.5848425865173144 -2.3667890548706123 -0.2795057773590085 0 0 255 0
1.5848425865173144 -2.3167890548706125 -0.5295057773590087 0 0 255 0
1.5848425865173144 -2.3167890548706125 -0.4795057773590087 0 0 255 0
1.5848425865173144 -2.3167890548706125 -0.42950577735900863 0 0 255 0
1.5848425865173144 -2.3167890548706125 -0.3795057773590086 0 0 255 0
1.5848425865173144 -2.3167890548706125 -0.32950577735900854 0 0 255 0
1.5848425865173144 -2.3167890548706125 -0.2795057773590085 0 0 255 0
1.5848425865173144 -2.2667890548706127 -0.5295057773590087 0 0 255 0
1.5848425865173144 -2.2667890548706127 -0.4795057773590087 0 0 255 0
1.5848425865173144 -2.2667890548706127 -0.42950577735900863 0 0 255 0
1.5848425865173144 -2.2667890548706127 -0.3795057773590086 0 0 255 0
1.5848425865173144 -2.216789054870613 -0.5295057773590087 0 0 255 0
1.5848425865173144 -2.216789054870613 -0.42950577735900863 0 0 255 0
1.5848425865173144 -2.216789054870613 -0.3795057773590086 0 0 255 0
1.5848425865173144 -2.216789054870613 -0.32950577735900854 0 0 255 0
1.5848425865173144 -2.166789054870613 -0.4795057773590087 0 0 255 0
1.5848425865173144 -2.166789054870613 -0.42950577735900863 0 0 255 0
1.5848425865173144 -2.166789054870613 -0.3795057773590086 0 0 255 0
1.5848425865173144 -2.166789054870613 -0.32950577735900854 0 0 255 0
1.5848425865173144 -2.116789054870613 -0.42950577735900863 0 0 255 0
1.5848425865173144 -2.116789054870613 -0.3795057773590086 0 0 255 0
1.5848425865173144 -2.116789054870613 -0.32950577735900854 0 0 255 0
1.5848425865173144 -2.0667890548706134 -0.3795057773590086 0 0 255 0
1.5848425865173144 -2.0667890548706134 -0.32950577735900854 0 0 255 0
1.5848425865173144 -2.0167890548706136 -0.32950577735900854 0 0 255 0
1.5848425865173144 -1.9667890548706137 -0.32950577735900854 0 0 255 0
1.5848425865173144 -1.7667890548706144 -0.2795057773590085 0 0 255 0
1.5848425865173144 -1.066789054870617 -0.0295057773590083 0 0 255 0
1.5848425865173144 -1.016789054870617 -0.07950577735900835 0 0 255 0
1.5848425865173144 -1.016789054870617 -0.0295057773590083 0 0 255 0
1.5848425865173144 -0.9667890548706172 -0.07950577735900835 0 0 255 0
1.5848425865173144 -0.9667890548706172 -0.0295057773590083 0 0 255 0
1.5848425865173144 -0.9667890548706172 0.020494222640991745 0 0 255 0
1.5848425865173144 -0.9167890548706173 -0.07950577735900835 0 0 255 0
1.5848425865173144 -0.9167890548706173 -0.0295057773590083 0 0 255 0
1.5848425865173144 -0.9167890548706173 0.020494222640991745 0 0 255 0
1.5848425865173144 -0.8667890548706175 -0.0295057773590083 0 0 255 0
1.5848425865173144 -0.8667890548706175 0.020494222640991745 0 0 255 0
1.5848425865173144 -0.8667890548706175 0.07049422264099178 0 0 255 0
1.5848425865173144 -0.8167890548706177 -0.0295057773590083 0 0 255 0
1.5848425865173144 -0.8167890548706177 0.020494222640991745 0 0 255 0
1.5848425865173144 -0.8167890548706177 0.07049422264099178 0 0 255 0
1.5848425865173144 -0.8167890548706177 0.12049422264099183 0 0 255 0
1.5848425865173144 -0.7667890548706179 -0.0295057773590083 0 0 255 0
1.5848425865173144 -0.7667890548706179 0.020494222640991745 0 0 255 0
1.5848425865173144 -0.7667890548706179 0.07049422264099178 0 0 255 0
1.5848425865173144 -0.7167890548706181 -0.0295057773590083 0 0 255 0
1.5848425865173144 -0.7167890548706181 0.020494222640991745 0 0 255 0
1.5848425865173144 -0.6667890548706182 -0.0295057773590083 0 0 255 0
1.5848425865173144 -0.6667890548706182 0.020494222640991745 0 0 255 0
1.5848425865173144 -0.5667890548706186 -0.0295057773590083 0 0 255 0
1.5848425865173144 -0.5667890548706186 0.020494222640991745 0 0 255 0
1.5848425865173144 -0.5167890548706188 -0.07950577735900835 0 0 255 0
1.5848425865173144 -0.5167890548706188 -0.0295057773590083 0 0 255 0
1.5848425865173144 -0.5167890548706188 0.020494222640991745 0 0 255 0
1.5848425865173144 -0.46678905487061895 -0.1295057773590084 0 0 255 0
1.5848425865173144 -0.46678905487061895 -0.07950577735900835 0 0 255 0
1.5848425865173144 -0.46678905487061895 -0.0295057773590083 0 0 255 0
1.5848425865173144 -0.4167890548706191 -0.1295057773590084 0 0 255 0
1.5848425865173144 -0.4167890548706191 -0.07950577735900835 0 0 255 0
1.5848425865173144 -0.4167890548706191 -0.0295057773590083 0 0 255 0
1.5848425865173144 -0.4167890548706191 0.020494222640991745 0 0 255 0
1.5848425865173144 -0.3667890548706193 -0.1295057773590084 0 0 255 0
1.5848425865173144 -0.3667890548706193 -0.07950577735900835 0 0 255 0
1.5848425865173144 -0.3667890548706193 -0.0295057773590083 0 0 255 0
1.5848425865173144 -0.3667890548706193 0.020494222640991745 0 0 255 0
1.5848425865173144 -0.3167890548706195 -0.1295057773590084 0 0 255 0
1.5848425865173144 -0.3167890548706195 -0.07950577735900835 0 0 255 0
1.5848425865173144 -0.3167890548706195 -0.0295057773590083 0 0 255 0
1.5848425865173144 -0.3167890548706195 0.020494222640991745 0 0 255 0
1.5848425865173144 -0.26678905487061966 -0.07950577735900835 0 0 255 0
1.5848425865173144 -0.26678905487061966 -0.0295057773590083 0 0 255 0
1.5848425865173144 -0.26678905487061966 0.020494222640991745 0 0 255 0
1.5848425865173144 -0.21678905487061986 -0.07950577735900835 0 0 255 0
1.5848425865173144 -0.21678905487061986 -0.0295057773590083 0 0 255 0
1.5848425865173144 -0.16678905487062004 -0.07950577735900835 0 0 255 0
1.5848425865173144 -0.11678905487062022 -0.07950577735900835 0 0 255 0
1.5848425865173144 -0.0667890548706204 -0.07950577735900835 0 0 255 0
1.5848425865173144 -0.016789054870620566 -0.07950577735900835 0 0 255 0
1.5848425865173144 -0.016789054870620566 -0.0295057773590083 0 0 255 0
1.5848425865173144 0.033210945129379256 -0.07950577735900835 0 0 255 0
1.5848425865173144 0.033210945129379256 -0.0295057773590083 0 0 255 0
1.5848425865173144 0.08321094512937907 -0.07950577735900835 0 0 255 0
1.5848425865173144 0.08321094512937907 -0.0295057773590083 0 0 255 0
1.5848425865173144 0.1332109451293789 -0.07950577735900835 0 0 255 0
1.5848425865173144 0.1332109451293789 -0.0295057773590083 0 0 255 0
1.5848425865173144 0.18321094512937872 -0.07950577735900835 0 0 255 0
1.5848425865173144 0.18321094512937872 -0.0295057773590083 0 0 255 0
1.5848425865173144 0.23321094512937854 -0.07950577735900835 0 0 255 0
1.5848425865173144 0.23321094512937854 -0.0295057773590083 0 0 255 0
1.5848425865173144 0.2832109451293784 -0.07950577735900835 0 0 255 0
1.5848425865173144 0.2832109451293784 -0.0295057773590083 0 0 255 0
1.5848425865173144 0.3332109451293782 -0.07950577735900835 0 0 255 0
1.5848425865173144 0.3332109451293782 -0.0295057773590083 0 0 255 0
1.5848425865173144 1.4332109451293742 -0.0295057773590083 0 0 255 0
1.5848425865173144 1.483210945129374 -0.07950577735900835 0 0 255 0
1.5848425865173144 1.5332109451293738 -0.07950577735900835 0 0 255 0
1.5848425865173144 1.5832109451293737 -0.07950577735900835 0 0 255 0
1.5848425865173144 1.6332109451293735 -0.07950577735900835 0 0 255 0
1.5848425865173144 1.6832109451293733 -0.07950577735900835 0 0 255 0
1.5848425865173144 1.7332109451293731 -0.07950577735900835 0 0 255 0
1.5848425865173144 1.783210945129373 -0.07950577735900835 0 0 255 0
1.5848425865173144 2.883210945129369 -0.07950577735900835 0 0 255 0
1.5848425865173144 2.933210945129369 -0.07950577735900835 0 0 255 0
1.6348425865173142 -2.6167890548706114 0.12049422264099183 0 0 255 0
1.6348425865173142 -2.5167890548706118 -0.2795057773590085 0 0 255 0
1.6348425865173142 -2.5167890548706118 -0.22950577735900848 0 0 255 0
1.6348425865173142 -2.416789054870612 -0.5295057773590087 0 0 255 0
1.6348425865173142 -2.416789054870612 -0.4795057773590087 0 0 255 0
1.6348425865173142 -2.416789054870612 -0.42950577735900863 0 0 255 0
1.6348425865173142 -2.416789054870612 -0.3795057773590086 0 0 255 0
1.6348425865173142 -2.3667890548706123 -0.5295057773590087 0 0 255 0
1.6348425865173142 -2.3667890548706123 -0.4795057773590087 0 0 255 0
1.6348425865173142 -2.3667890548706123 -0.42950577735900863 0 0 255 0
1.6348425865173142 -2.3667890548706123 -0.3795057773590086 0 0 255 0
1.6348425865173142 -2.3167890548706125 -0.5295057773590087 0 0 255 0
1.6348425865173142 -2.3167890548706125 -0.4795057773590087 0 0 255 0
1.6348425865173142 -2.3167890548706125 -0.42950577735900863 0 0 255 0
1.6348425865173142 -2.3167890548706125 -0.3795057773590086 0 0 255 0
1.6348425865173142 -2.2667890548706127 -0.5295057773590087 0 0 255 0
1.6348425865173142 -2.2667890548706127 -0.4795057773590087 0 0 255 0
1.6348425865173142 -2.2667890548706127 -0.42950577735900863 0 0 255 0
1.6348425865173142 -2.2667890548706127 -0.3795057773590086 0 0 255 0
1.6348425865173142 -2.216789054870613 -0.5295057773590087 0 0 255 0
1.6348425865173142 -2.216789054870613 -0.4795057773590087 0 0 255 0
1.6348425865173142 -2.216789054870613 -0.42950577735900863 0 0 255 0
1.6348425865173142 -2.216789054870613 -0.3795057773590086 0 0 255 0
1.6348425865173142 -2.166789054870613 -0.5295057773590087 0 0 255 0
1.6348425865173142 -2.166789054870613 -0.4795057773590087 0 0 255 0
1.6348425865173142 -2.166789054870613 -0.42950577735900863 0 0 255 0
1.6348425865173142 -2.166789054870613 -0.3795057773590086 0 0 255 0
1.6348425865173142 -2.116789054870613 -0.4795057773590087 0 0 255 0
1.6348425865173142 -2.116789054870613 -0.42950577735900863 0 0 255 0
1.6348425865173142 -2.116789054870613 -0.3795057773590086 0 0 255 0
1.6348425865173142 -2.0667890548706134 -0.42950577735900863 0 0 255 0
1.6348425865173142 -2.0667890548706134 -0.3795057773590086 0 0 255 0
1.6348425865173142 -2.0167890548706136 -0.3795057773590086 0 0 255 0
1.6348425865173142 -2.0167890548706136 -0.32950577735900854 0 0 255 0
1.6348425865173142 -1.9667890548706137 -0.3795057773590086 0 0 255 0
1.6348425865173142 -1.9667890548706137 -0.32950577735900854 0 0 255 0
1.6348425865173142 -1.916789054870614 -0.32950577735900854 0 0 255 0
1.6348425865173142 -1.6667890548706148 -0.2795057773590085 0 0 255 0
1.6348425865173142 -1.6667890548706148 -0.22950577735900848 0 0 255 0
1.6348425865173142 -1.616789054870615 -0.2795057773590085 0 0 255 0
1.6348425865173142 -1.616789054870615 -0.17950577735900844 0 0 255 0
1.6348425865173142 -1.5667890548706151 -0.32950577735900854 0 0 255 0
1.6348425865173142 -1.5667890548706151 -0.2795057773590085 0 0 255 0
1.6348425865173142 -1.5667890548706151 -0.22950577735900848 0 0 255 0
1.6348425865173142 -1.5667890548706151 -0.17950577735900844 0 0 255 0
1.6348425865173142 -1.5167890548706153 -0.32950577735900854 0 0 255 0
1.6348425865173142 -1.5167890548706153 -0.2795057773590085 0 0 255 0
1.6348425865173142 -1.4667890548706155 -0.32950577735900854 0 0 255 0
1.6348425865173142 -1.4667890548706155 -0.2795057773590085 0 0 255 0
1.6348425865173142 -1.4167890548706157 -0.32950577735900854 0 0 255 0
1.6348425865173142 -1.4167890548706157 -0.2795057773590085 0 0 255 0
1.6348425865173142 -1.066789054870617 -0.0295057773590083 0 0 255 0
1.6348425865173142 -1.016789054870617 -0.0295057773590083 0 0 255 0
1.6348425865173142 -1.016789054870617 0.020494222640991745 0 0 255 0
1.6348425865173142 -0.9667890548706172 -0.0295057773590083 0 0 255 0
1.6348425865173142 -0.9667890548706172 0.020494222640991745 0 0 255 0
1.6348425865173142 -0.9167890548706173 -0.0295057773590083 0 0 255 0
1.6348425865173142 -0.9167890548706173 0.020494222640991745 0 0 255 0
1.6348425865173142 -0.8667890548706175 -0.0295057773590083 0 0 255 0
1.6348425865173142 -0.8667890548706175 0.020494222640991745 0 0 255 0
1.6348425865173142 -0.8667890548706175 0.07049422264099178 0 0 255 0
1.6348425865173142 -0.8167890548706177 -0.0295057773590083 0 0 255 0
1.6348425865173142 -0.8167890548706177 0.020494222640991745 0 0 255 0
1.6348425865173142 -0.8167890548706177 0.07049422264099178 0 0 255 0
1.6348425865173142 -0.8167890548706177 0.12049422264099183 0 0 255 0
1.6348425865173142 -0.7667890548706179 -0.0295057773590083 0 0 255 0
1.6348425865173142 -0.7667890548706179 0.020494222640991745 0 0 255 0
1.6348425865173142 -0.7667890548706179 0.07049422264099178 0 0 255 0
1.6348425865173142 -0.7667890548706179 0.12049422264099183 0 0 255 0
1.6348425865173142 -0.7167890548706181 -0.0295057773590083 0 0 255 0
1.6348425865173142 -0.7167890548706181 0.020494222640991745 0 0 255 0
1.6348425865173142 -0.6667890548706182 -0.0295057773590083 0 0 255 0
1.6348425865173142 -0.6667890548706182 0.020494222640991745 0 0 255 0
1.6348425865173142 -0.6167890548706184 -0.0295057773590083 0 0 255 0
1.6348425865173142 -0.6167890548706184 0.020494222640991745 0 0 255 0
1.6348425865173142 -0.5667890548706186 -0.0295057773590083 0 0 255 0
1.6348425865173142 -0.5667890548706186 0.020494222640991745 0 0 255 0
1.6348425865173142 -0.5167890548706188 -0.07950577735900835 0 0 255 0
1.6348425865173142 -0.5167890548706188 -0.0295057773590083 0 0 255 0
1.6348425865173142 -0.5167890548706188 0.020494222640991745 0 0 255 0
1.6348425865173142 -0.46678905487061895 -0.1295057773590084 0 0 255 0
1.6348425865173142 -0.46678905487061895 -0.07950577735900835 0 0 255 0
1.6348425865173142 -0.46678905487061895 -0.0295057773590083 0 0 255 0
1.6348425865173142 -0.4167890548706191 -0.1295057773590084 0 0 255 0
1.6348425865173142 -0.4167890548706191 -0.07950577735900835 0 0 255 0
1.6348425865173142 -0.4167890548706191 -0.0295057773590083 0 0 255 0
1.6348425865173142 -0.3667890548706193 -0.1295057773590084 0 0 255 0
1.6348425865173142 -0.3667890548706193 -0.07950577735900835 0 0 255 0
1.6348425865173142 -0.3667890548706193 -0.0295057773590083 0 0 255 0
1.6348425865173142 -0.3167890548706195 -0.1295057773590084 0 0 255 0
1.6348425865173142 -0.3167890548706195 -0.07950577735900835 0 0 255 0
1.6348425865173142 -0.3167890548706195 -0.0295057773590083 0 0 255 0
1.6348425865173142 -0.26678905487061966 -0.07950577735900835 0 0 255 0
1.6348425865173142 -0.21678905487061986 -0.1295057773590084 0 0 255 0
1.6348425865173142 -0.21678905487061986 -0.07950577735900835 0 0 255 0
1.6348425865173142 -0.16678905487062004 -0.1295057773590084 0 0 255 0
1.6348425865173142 -0.16678905487062004 -0.07950577735900835 0 0 255 0
1.6348425865173142 -0.11678905487062022 -0.07950577735900835 0 0 255 0
1.6348425865173142 -0.0667890548706204 -0.1295057773590084 0 0 255 0
1.6348425865173142 -0.0667890548706204 -0.07950577735900835 0 0 255 0
1.6348425865173142 -0.016789054870620566 -0.1295057773590084 0 0 255 0
1.6348425865173142 -0.016789054870620566 -0.07950577735900835 0 0 255 0
1.6348425865173142 0.033210945129379256 -0.07950577735900835 0 0 255 0
1.6348425865173142 0.033210945129379256 -0.0295057773590083 0 0 255 0
1.6348425865173142 0.08321094512937907 -0.07950577735900835 0 0 255 0
1.6348425865173142 0.08321094512937907 -0.0295057773590083 0 0 255 0
1.6348425865173142 0.1332109451293789 -0.1295057773590084 0 0 255 0
1.6348425865173142 0.1332109451293789 -0.07950577735900835 0 0 255 0
1.6348425865173142 0.1332109451293789 -0.0295057773590083 0 0 255 0
1.6348425865173142 0.18321094512937872 -0.1295057773590084 0 0 255 0
1.6348425865173142 0.18321094512937872 -0.07950577735900835 0 0 255 0
1.6348425865173142 0.18321094512937872 -0.0295057773590083 0 0 255 0
1.6348425865173142 0.23321094512937854 -0.07950577735900835 0 0 255 0
1.6348425865173142 0.23321094512937854 -0.0295057773590083 0 0 255 0
1.6348425865173142 0.2832109451293784 -0.07950577735900835 0 0 255 0
1.6348425865173142 0.2832109451293784 -0.0295057773590083 0 0 255 0
1.6348425865173142 0.3332109451293782 -0.07950577735900835 0 0 255 0
1.6348425865173142 0.3332109451293782 -0.0295057773590083 0 0 255 0
1.6348425865173142 0.38321094512937803 -0.07950577735900835 0 0 255 0
1.6348425865173142 0.38321094512937803 -0.0295057773590083 0 0 255 0
1.6348425865173142 0.43321094512937786 -0.07950577735900835 0 0 255 0
1.6348425865173142 0.43321094512937786 -0.0295057773590083 0 0 255 0
1.6348425865173142 1.4332109451293742 -0.07950577735900835 0 0 255 0
1.6348425865173142 1.4332109451293742 -0.0295057773590083 0 0 255 0
1.6348425865173142 1.483210945129374 -0.07950577735900835 0 0 255 0
1.6348425865173142 1.5332109451293738 -0.07950577735900835 0 0 255 0
1.6348425865173142 1.6332109451293735 -0.07950577735900835 0 0 255 0
1.6348425865173142 1.6832109451293733 -0.07950577735900835 0 0 255 0
1.6348425865173142 2.9832109451293687 -0.07950577735900835 0 0 255 0
1.6348425865173142 3.483210945129367 0.17049422264099187 0 0 255 0
1.684842586517314 -2.5167890548706118 -0.2795057773590085 0 0 255 0
1.684842586517314 -2.466789054870612 -0.42950577735900863 0 0 255 0
1.684842586517314 -2.466789054870612 -0.3795057773590086 0 0 255 0
1.684842586517314 -2.416789054870612 -0.4795057773590087 0 0 255 0
1.684842586517314 -2.416789054870612 -0.42950577735900863 0 0 255 0
1.684842586517314 -2.416789054870612 -0.3795057773590086 0 0 255 0
1.684842586517314 -2.3667890548706123 -0.5295057773590087 0 0 255 0
1.684842586517314 -2.3667890548706123 -0.4795057773590087 0 0 255 0
1.684842586517314 -2.3667890548706123 -0.42950577735900863 0 0 255 0
1.684842586517314 -2.3667890548706123 -0.3795057773590086 0 0 255 0
1.684842586517314 -2.3167890548706125 -0.5295057773590087 0 0 255 0
1.684842586517314 -2.3167890548706125 -0.4795057773590087 0 0 255 0
1.684842586517314 -2.3167890548706125 -0.42950577735900863 0 0 255 0
1.684842586517314 -2.3167890548706125 -0.3795057773590086 0 0 255 0
1.684842586517314 -2.2667890548706127 -0.5295057773590087 0 0 255 0
1.684842586517314 -2.2667890548706127 -0.4795057773590087 0 0 255 0
1.684842586517314 -2.2667890548706127 -0.42950577735900863 0 0 255 0
1.684842586517314 -2.2667890548706127 -0.3795057773590086 0 0 255 0
1.684842586517314 -2.216789054870613 -0.5295057773590087 0 0 255 0
1.684842586517314 -2.216789054870613 -0.4795057773590087 0 0 255 0
1.684842586517314 -2.216789054870613 -0.42950577735900863 0 0 255 0
1.684842586517314 -2.216789054870613 -0.3795057773590086 0 0 255 0
1.684842586517314 -2.166789054870613 -0.5295057773590087 0 0 255 0
1.684842586517314 -2.166789054870613 -0.4795057773590087 0 0 255 0
1.684842586517314 -2.166789054870613 -0.42950577735900863 0 0 255 0
1.684842586517314 -2.166789054870613 -0.3795057773590086 0 0 255 0
1.684842586517314 -2.116789054870613 -0.4795057773590087 0 0 255 0
1.684842586517314 -2.116789054870613 -0.42950577735900863 0 0 255 0
1.684842586517314 -2.116789054870613 -0.3795057773590086 0 0 255 0
1.684842586517314 -2.0667890548706134 -0.42950577735900863 0 0 255 0
1.684842586517314 -2.0667890548706134 -0.3795057773590086 0 0 255 0
1.684842586517314 -2.0167890548706136 -0.42950577735900863 0 0 255 0
1.684842586517314 -2.0167890548706136 -0.3795057773590086 0 0 255 0
1.684842586517314 -1.9667890548706137 -0.3795057773590086 0 0 255 0
1.684842586517314 -0.9667890548706172 0.020494222640991745 0 0 255 0
1.684842586517314 -0.9667890548706172 0.07049422264099178 0 0 255 0
1.684842586517314 -0.9167890548706173 0.020494222640991745 0 0 255 0
1.684842586517314 -0.9167890548706173 0.07049422264099178 0 0 255 0
1.684842586517314 -0.8667890548706175 -0.0295057773590083 0 0 255 0
1.684842586517314 -0.8667890548706175 0.020494222640991745 0 0 255 0
1.684842586517314 -0.8667890548706175 0.07049422264099178 0 0 255 0
1.684842586517314 -0.8167890548706177 -0.0295057773590083 0 0 255 0
1.684842586517314 -0.8167890548706177 0.020494222640991745 0 0 255 0
1.684842586517314 -0.8167890548706177 0.07049422264099178 0 0 255 0
1.684842586517314 -0.8167890548706177 0.12049422264099183 0 0 255 0
1.684842586517314 -0.7667890548706179 -0.0295057773590083 0 0 255 0
1.684842586517314 -0.7667890548706179 0.020494222640991745 0 0 255 0
1.684842586517314 -0.7667890548706179 0.07049422264099178 0 0 255 0
1.684842586517314 -0.7667890548706179 0.12049422264099183 0 0 255 0
1.684842586517314 -0.7167890548706181 -0.0295057773590083 0 0 255 0
1.684842586517314 -0.7167890548706181 0.020494222640991745 0 0 255 0
1.684842586517314 -0.7167890548706181 0.07049422264099178 0 0 255 0
1.684842586517314 -0.6667890548706182 -0.0295057773590083 0 0 255 0
1.684842586517314 -0.6667890548706182 0.020494222640991745 0 0 255 0
1.684842586517314 -0.6167890548706184 -0.0295057773590083 0 0 255 0
1.684842586517314 -0.6167890548706184 0.020494222640991745 0 0 255 0
1.684842586517314 -0.5667890548706186 -0.07950577735900835 0 0 255 0
1.684842586517314 -0.5667890548706186 -0.0295057773590083 0 0 255 0
1.684842586517314 -0.5667890548706186 0.020494222640991745 0 0 255 0
1.684842586517314 -0.5167890548706188 -0.07950577735900835 0 0 255 0
1.684842586517314 -0.5167890548706188 -0.0295057773590083 0 0 255 0
1.684842586517314 -0.5167890548706188 0.020494222640991745 0 0 255 0
1.684842586517314 -0.46678905487061895 -0.1295057773590084 0 0 255 0
1.684842586517314 -0.46678905487061895 -0.07950577735900835 0 0 255 0
1.684842586517314 -0.46678905487061895 -0.0295057773590083 0 0 255 0
1.684842586517314 -0.4167890548706191 -0.1295057773590084 0 0 255 0
1.684842586517314 -0.4167890548706191 -0.07950577735900835 0 0 255 0
1.684842586517314 -0.3667890548706193 -0.1295057773590084 0 0 255 0
1.684842586517314 -0.3667890548706193 -0.07950577735900835 0 0 255 0
1.684842586517314 -0.3167890548706195 -0.07950577735900835 0 0 255 0
1.684842586517314 -0.26678905487061966 -0.07950577735900835 0 0 255 0
1.684842586517314 -0.21678905487061986 -0.1295057773590084 0 0 255 0
1.684842586517314 -0.21678905487061986 -0.07950577735900835 0 0 255 0
1.684842586517314 -0.16678905487062004 -0.1295057773590084 0 0 255 0
1.684842586517314 -0.16678905487062004 -0.07950577735900835 0 0 255 0
1.684842586517314 -0.11678905487062022 -0.1295057773590084 0 0 255 0
1.684842586517314 -0.11678905487062022 -0.07950577735900835 0 0 255 0
1.684842586517314 -0.11678905487062022 -0.0295057773590083 0 0 255 0
1.684842586517314 -0.0667890548706204 -0.1295057773590084 0 0 255 0
1.684842586517314 -0.0667890548706204 -0.07950577735900835 0 0 255 0
1.684842586517314 -0.016789054870620566 -0.07950577735900835 0 0 255 0
1.684842586517314 0.033210945129379256 -0.07950577735900835 0 0 255 0
1.684842586517314 0.033210945129379256 -0.0295057773590083 0 0 255 0
1.684842586517314 0.08321094512937907 -0.1295057773590084 0 0 255 0
1.684842586517314 0.08321094512937907 -0.07950577735900835 0 0 255 0
1.684842586517314 0.08321094512937907 -0.0295057773590083 0 0 255 0
1.684842586517314 0.1332109451293789 -0.07950577735900835 0 0 255 0
1.684842586517314 0.1332109451293789 -0.0295057773590083 0 0 255 0
1.684842586517314 0.18321094512937872 -0.1295057773590084 0 0 255 0
1.684842586517314 0.18321094512937872 -0.07950577735900835 0 0 255 0
1.684842586517314 0.18321094512937872 -0.0295057773590083 0 0 255 0
1.684842586517314 0.23321094512937854 -0.07950577735900835 0 0 255 0
1.684842586517314 0.23321094512937854 -0.0295057773590083 0 0 255 0
1.684842586517314 0.2832109451293784 -0.07950577735900835 0 0 255 0
1.684842586517314 0.2832109451293784 -0.0295057773590083 0 0 255 0
1.684842586517314 0.3332109451293782 -0.07950577735900835 0 0 255 0
1.684842586517314 0.3332109451293782 -0.0295057773590083 0 0 255 0
1.684842586517314 0.38321094512937803 -0.07950577735900835 0 0 255 0
1.684842586517314 0.38321094512937803 -0.0295057773590083 0 0 255 0
1.684842586517314 0.43321094512937786 -0.07950577735900835 0 0 255 0
1.684842586517314 0.43321094512937786 -0.0295057773590083 0 0 255 0
1.684842586517314 0.4832109451293777 -0.07950577735900835 0 0 255 0
1.684842586517314 0.4832109451293777 -0.0295057773590083 0 0 255 0
1.684842586517314 0.5332109451293775 -0.0295057773590083 0 0 255 0
1.684842586517314 1.4332109451293742 -0.07950577735900835 0 0 255 0
1.684842586517314 1.483210945129374 -0.07950577735900835 0 0 255 0
1.684842586517314 1.5332109451293738 -0.07950577735900835 0 0 255 0
1.684842586517314 1.6332109451293735 -0.07950577735900835 0 0 255 0
1.684842586517314 1.6832109451293733 -0.07950577735900835 0 0 255 0
1.7348425865173138 -2.5167890548706118 -0.32950577735900854 0 0 255 0
1.7348425865173138 -2.466789054870612 -0.3795057773590086 0 0 255 0
1.7348425865173138 -2.416789054870612 -0.5295057773590087 0 0 255 0
1.7348425865173138 -2.416789054870612 -0.4795057773590087 0 0 255 0
1.7348425865173138 -2.416789054870612 -0.42950577735900863 0 0 255 0
1.7348425865173138 -2.416789054870612 -0.3795057773590086 0 0 255 0
1.7348425865173138 -2.3667890548706123 -0.5295057773590087 0 0 255 0
1.7348425865173138 -2.3667890548706123 -0.4795057773590087 0 0 255 0
1.7348425865173138 -2.3667890548706123 -0.42950577735900863 0 0 255 0
1.7348425865173138 -2.3667890548706123 -0.3795057773590086 0 0 255 0
1.7348425865173138 -2.3167890548706125 -0.5295057773590087 0 0 255 0
1.7348425865173138 -2.3167890548706125 -0.4795057773590087 0 0 255 0
1.7348425865173138 -2.3167890548706125 -0.42950577735900863 0 0 255 0
1.7348425865173138 -2.3167890548706125 -0.3795057773590086 0 0 255 0
1.7348425865173138 -2.2667890548706127 -0.5295057773590087 0 0 255 0
1.7348425865173138 -2.2667890548706127 -0.4795057773590087 0 0 255 0
1.7348425865173138 -2.2667890548706127 -0.42950577735900863 0 0 255 0
1.7348425865173138 -2.2667890548706127 -0.3795057773590086 0 0 255 0
1.7348425865173138 -2.216789054870613 -0.5295057773590087 0 0 255 0
1.7348425865173138 -2.216789054870613 -0.4795057773590087 0 0 255 0
1.7348425865173138 -2.216789054870613 -0.42950577735900863 0 0 255 0
1.7348425865173138 -2.216789054870613 -0.3795057773590086 0 0 255 0
1.7348425865173138 -2.166789054870613 -0.5295057773590087 0 0 255 0
1.7348425865173138 -2.166789054870613 -0.4795057773590087 0 0 255 0
1.7348425865173138 -2.166789054870613 -0.42950577735900863 0 0 255 0
1.7348425865173138 -2.166789054870613 -0.3795057773590086 0 0 255 0
1.7348425865173138 -2.116789054870613 -0.4795057773590087 0 0 255 0
1.7348425865173138 -2.116789054870613 -0.42950577735900863 0 0 255 0
1.7348425865173138 -2.116789054870613 -0.3795057773590086 0 0 255 0
1.7348425865173138 -2.0667890548706134 -0.4795057773590087 0 0 255 0
1.7348425865173138 -2.0667890548706134 -0.42950577735900863 0 0 255 0
1.7348425865173138 -2.0667890548706134 -0.3795057773590086 0 0 255 0
1.7348425865173138 -2.0167890548706136 -0.42950577735900863 0 0 255 0
1.7348425865173138 -2.0167890548706136 -0.3795057773590086 0 0 255 0
1.7348425865173138 -1.9667890548706137 -0.3795057773590086 0 0 255 0
1.7348425865173138 -1.916789054870614 -0.3795057773590086 0 0 255 0
1.7348425865173138 -0.9667890548706172 0.020494222640991745 0 0 255 0
1.7348425865173138 -0.9167890548706173 0.020494222640991745 0 0 255 0
1.7348425865173138 -0.9167890548706173 0.07049422264099178 0 0 255 0
1.7348425865173138 -0.8667890548706175 0.020494222640991745 0 0 255 0
1.7348425865173138 -0.8667890548706175 0.07049422264099178 0 0 255 0
1.7348425865173138 -0.8667890548706175 0.12049422264099183 0 0 255 0
1.7348425865173138 -0.8167890548706177 -0.0295057773590083 0 0 255 0
1.7348425865173138 -0.8167890548706177 0.020494222640991745 0 0 255 0
1.7348425865173138 -0.8167890548706177 0.07049422264099178 0 0 255 0
1.7348425865173138 -0.8167890548706177 0.12049422264099183 0 0 255 0
1.7348425865173138 -0.7667890548706179 -0.07950577735900835 0 0 255 0
1.7348425865173138 -0.7667890548706179 -0.0295057773590083 0 0 255 0
1.7348425865173138 -0.7667890548706179 0.020494222640991745 0 0 255 0
1.7348425865173138 -0.7667890548706179 0.07049422264099178 0 0 255 0
1.7348425865173138 -0.7667890548706179 0.12049422264099183 0 0 255 0
1.7348425865173138 -0.7167890548706181 -0.07950577735900835 0 0 255 0
1.7348425865173138 -0.7167890548706181 -0.0295057773590083 0 0 255 0
1.7348425865173138 -0.7167890548706181 0.020494222640991745 0 0 255 0
1.7348425865173138 -0.7167890548706181 0.07049422264099178 0 0 255 0
1.7348425865173138 -0.6667890548706182 -0.07950577735900835 0 0 255 0
1.7348425865173138 -0.6667890548706182 -0.0295057773590083 0 0 255 0
1.7348425865173138 -0.6667890548706182 0.020494222640991745 0 0 255 0
1.7348425865173138 -0.6667890548706182 0.07049422264099178 0 0 255 0
1.7348425865173138 -0.6167890548706184 -0.07950577735900835 0 0 255 0
1.7348425865173138 -0.6167890548706184 -0.0295057773590083 0 0 255 0
1.7348425865173138 -0.6167890548706184 0.020494222640991745 0 0 255 0
1.7348425865173138 -0.5667890548706186 -0.07950577735900835 0 0 255 0
1.7348425865173138 -0.5667890548706186 -0.0295057773590083 0 0 255 0
1.7348425865173138 -0.5167890548706188 -0.07950577735900835 0 0 255 0
1.7348425865173138 -0.5167890548706188 -0.0295057773590083 0 0 255 0
1.7348425865173138 -0.46678905487061895 -0.1295057773590084 0 0 255 0
1.7348425865173138 -0.46678905487061895 -0.07950577735900835 0 0 255 0
1.7348425865173138 -0.4167890548706191 -0.1295057773590084 0 0 255 0
1.7348425865173138 -0.4167890548706191 -0.07950577735900835 0 0 255 0
1.7348425865173138 -0.3667890548706193 -0.1295057773590084 0 0 255 0
1.7348425865173138 -0.3667890548706193 -0.07950577735900835 0 0 255 0
1.7348425865173138 -0.3167890548706195 -0.1295057773590084 0 0 255 0
1.7348425865173138 -0.3167890548706195 -0.07950577735900835 0 0 255 0
1.7348425865173138 -0.26678905487061966 -0.1295057773590084 0 0 255 0
1.7348425865173138 -0.26678905487061966 -0.07950577735900835 0 0 255 0
1.7348425865173138 -0.21678905487061986 -0.1295057773590084 0 0 255 0
1.7348425865173138 -0.21678905487061986 -0.07950577735900835 0 0 255 0
1.7348425865173138 -0.16678905487062004 -0.1295057773590084 0 0 255 0
1.7348425865173138 -0.16678905487062004 -0.07950577735900835 0 0 255 0
1.7348425865173138 -0.11678905487062022 -0.1295057773590084 0 0 255 0
1.7348425865173138 -0.11678905487062022 -0.07950577735900835 0 0 255 0
1.7348425865173138 -0.0667890548706204 -0.1295057773590084 0 0 255 0
1.7348425865173138 -0.0667890548706204 -0.07950577735900835 0 0 255 0
1.7348425865173138 -0.016789054870620566 -0.07950577735900835 0 0 255 0
1.7348425865173138 0.033210945129379256 -0.1295057773590084 0 0 255 0
1.7348425865173138 0.033210945129379256 -0.07950577735900835 0 0 255 0
1.7348425865173138 0.033210945129379256 -0.0295057773590083 0 0 255 0
1.7348425865173138 0.08321094512937907 -0.1295057773590084 0 0 255 0
1.7348425865173138 0.08321094512937907 -0.07950577735900835 0 0 255 0
1.7348425865173138 0.08321094512937907 -0.0295057773590083 0 0 255 0
1.7348425865173138 0.1332109451293789 -0.1295057773590084 0 0 255 0
1.7348425865173138 0.1332109451293789 -0.07950577735900835 0 0 255 0
1.7348425865173138 0.1332109451293789 -0.0295057773590083 0 0 255 0
1.7348425865173138 0.18321094512937872 -0.07950577735900835 0 0 255 0
1.7348425865173138 0.18321094512937872 -0.0295057773590083 0 0 255 0
1.7348425865173138 0.23321094512937854 -0.07950577735900835 0 0 255 0
1.7348425865173138 0.23321094512937854 -0.0295057773590083 0 0 255 0
1.7348425865173138 0.2832109451293784 -0.07950577735900835 0 0 255 0
1.7348425865173138 0.2832109451293784 -0.0295057773590083 0 0 255 0
1.7348425865173138 0.3332109451293782 -0.07950577735900835 0 0 255 0
1.7348425865173138 0.3332109451293782 -0.0295057773590083 0 0 255 0
1.7348425865173138 0.38321094512937803 -0.07950577735900835 0 0 255 0
1.7348425865173138 0.38321094512937803 -0.0295057773590083 0 0 255 0
1.7348425865173138 0.43321094512937786 -0.07950577735900835 0 0 255 0
1.7348425865173138 0.43321094512937786 -0.0295057773590083 0 0 255 0
1.7348425865173138 0.4832109451293777 -0.07950577735900835 0 0 255 0
1.7348425865173138 0.4832109451293777 -0.0295057773590083 0 0 255 0
1.7348425865173138 0.5332109451293775 -0.07950577735900835 0 0 255 0
1.7348425865173138 0.5332109451293775 -0.0295057773590083 0 0 255 0
1.7348425865173138 1.4332109451293742 -0.07950577735900835 0 0 255 0
1.7348425865173138 1.483210945129374 -0.07950577735900835 0 0 255 0
1.7348425865173138 1.5832109451293737 -0.07950577735900835 0 0 255 0
1.7348425865173138 1.6332109451293735 -0.07950577735900835 0 0 255 0
1.7348425865173138 1.6332109451293735 -0.0295057773590083 0 0 255 0
1.7348425865173138 1.6832109451293733 -0.07950577735900835 0 0 255 0
1.7848425865173136 -2.5667890548706116 -0.07950577735900835 0 0 255 0
1.7848425865173136 -2.5667890548706116 -0.0295057773590083 0 0 255 0
1.7848425865173136 -2.5167890548706118 -0.32950577735900854 0 0 255 0
1.7848425865173136 -2.5167890548706118 -0.2795057773590085 0 0 255 0
1.7848425865173136 -2.466789054870612 -0.42950577735900863 0 0 255 0
1.7848425865173136 -2.466789054870612 -0.3795057773590086 0 0 255 0
1.7848425865173136 -2.416789054870612 -0.4795057773590087 0 0 255 0
1.7848425865173136 -2.416789054870612 -0.42950577735900863 0 0 255 0
1.7848425865173136 -2.416789054870612 -0.3795057773590086 0 0 255 0
1.7848425865173136 -2.3667890548706123 -0.5295057773590087 0 0 255 0
1.7848425865173136 -2.3667890548706123 -0.4795057773590087 0 0 255 0
1.7848425865173136 -2.3667890548706123 -0.42950577735900863 0 0 255 0
1.7848425865173136 -2.3667890548706123 -0.3795057773590086 0 0 255 0
1.7848425865173136 -2.3167890548706125 -0.5795057773590088 0 0 255 0
1.7848425865173136 -2.3167890548706125 -0.5295057773590087 0 0 255 0
1.7848425865173136 -2.3167890548706125 -0.4795057773590087 0 0 255 0
1.7848425865173136 -2.3167890548706125 -0.42950577735900863 0 0 255 0
1.7848425865173136 -2.3167890548706125 -0.3795057773590086 0 0 255 0
1.7848425865173136 -2.2667890548706127 -0.5795057773590088 0 0 255 0
1.7848425865173136 -2.2667890548706127 -0.5295057773590087 0 0 255 0
1.7848425865173136 -2.2667890548706127 -0.4795057773590087 0 0 255 0
1.7848425865173136 -2.2667890548706127 -0.42950577735900863 0 0 255 0
1.7848425865173136 -2.2667890548706127 -0.3795057773590086 0 0 255 0
1.7848425865173136 -2.216789054870613 -0.5295057773590087 0 0 255 0
1.7848425865173136 -2.216789054870613 -0.4795057773590087 0 0 255 0
1.7848425865173136 -2.216789054870613 -0.42950577735900863 0 0 255 0
1.7848425865173136 -2.216789054870613 -0.3795057773590086 0 0 255 0
1.7848425865173136 -2.166789054870613 -0.5295057773590087 0 0 255 0
1.7848425865173136 -2.166789054870613 -0.4795057773590087 0 0 255 0
1.7848425865173136 -2.166789054870613 -0.42950577735900863 0 0 255 0
1.7848425865173136 -2.166789054870613 -0.3795057773590086 0 0 255 0
1.7848425865173136 -2.116789054870613 -0.4795057773590087 0 0 255 0
1.7848425865173136 -2.116789054870613 -0.42950577735900863 0 0 255 0
1.7848425865173136 -2.116789054870613 -0.3795057773590086 0 0 255 0
1.7848425865173136 -2.0667890548706134 -0.4795057773590087 0 0 255 0
1.7848425865173136 -2.0667890548706134 -0.42950577735900863 0 0 255 0
1.7848425865173136 -2.0667890548706134 -0.3795057773590086 0 0 255 0
1.7848425865173136 -2.0167890548706136 -0.42950577735900863 0 0 255 0
1.7848425865173136 -2.0167890548706136 -0.3795057773590086 0 0 255 0
1.7848425865173136 -1.9667890548706137 -0.3795057773590086 0 0 255 0
1.7848425865173136 -1.916789054870614 -0.3795057773590086 0 0 255 0
1.7848425865173136 -1.016789054870617 0.020494222640991745 0 0 255 0
1.7848425865173136 -0.9667890548706172 0.020494222640991745 0 0 255 0
1.7848425865173136 -0.9167890548706173 0.020494222640991745 0 0 255 0
1.7848425865173136 -0.9167890548706173 0.07049422264099178 0 0 255 0
1.7848425865173136 -0.8667890548706175 -0.0295057773590083 0 0 255 0
1.7848425865173136 -0.8667890548706175 0.020494222640991745 0 0 255 0
1.7848425865173136 -0.8667890548706175 0.07049422264099178 0 0 255 0
1.7848425865173136 -0.8667890548706175 0.12049422264099183 0 0 255 0
1.7848425865173136 -0.8167890548706177 -0.0295057773590083 0 0 255 0
1.7848425865173136 -0.8167890548706177 0.020494222640991745 0 0 255 0
1.7848425865173136 -0.8167890548706177 0.07049422264099178 0 0 255 0
1.7848425865173136 -0.8167890548706177 0.12049422264099183 0 0 255 0
1.7848425865173136 -0.7667890548706179 -0.07950577735900835 0 0 255 0
1.7848425865173136 -0.7667890548706179 -0.0295057773590083 0 0 255 0
1.7848425865173136 -0.7667890548706179 0.020494222640991745 0 0 255 0
1.7848425865173136 -0.7667890548706179 0.07049422264099178 0 0 255 0
1.7848425865173136 -0.7667890548706179 0.12049422264099183 0 0 255 0
1.7848425865173136 -0.7167890548706181 -0.07950577735900835 0 0 255 0
1.7848425865173136 -0.7167890548706181 -0.0295057773590083 0 0 255 0
1.7848425865173136 -0.7167890548706181 0.020494222640991745 0 0 255 0
1.7848425865173136 -0.7167890548706181 0.07049422264099178 0 0 255 0
1.7848425865173136 -0.6667890548706182 -0.07950577735900835 0 0 255 0
1.7848425865173136 -0.6667890548706182 -0.0295057773590083 0 0 255 0
1.7848425865173136 -0.6667890548706182 0.020494222640991745 0 0 255 0
1.7848425865173136 -0.6667890548706182 0.07049422264099178 0 0 255 0
1.7848425865173136 -0.6167890548706184 -0.07950577735900835 0 0 255 0
1.7848425865173136 -0.6167890548706184 -0.0295057773590083 0 0 255 0
1.7848425865173136 -0.6167890548706184 0.020494222640991745 0 0 255 0
1.7848425865173136 -0.5667890548706186 -0.07950577735900835 0 0 255 0
1.7848425865173136 -0.5667890548706186 -0.0295057773590083 0 0 255 0
1.7848425865173136 -0.5167890548706188 -0.1295057773590084 0 0 255 0
1.7848425865173136 -0.5167890548706188 -0.07950577735900835 0 0 255 0
1.7848425865173136 -0.46678905487061895 -0.1295057773590084 0 0 255 0
1.7848425865173136 -0.46678905487061895 -0.07950577735900835 0 0 255 0
1.7848425865173136 -0.4167890548706191 -0.1295057773590084 0 0 255 0
1.7848425865173136 -0.4167890548706191 -0.07950577735900835 0 0 255 0
1.7848425865173136 -0.3667890548706193 -0.1295057773590084 0 0 255 0
1.7848425865173136 -0.3667890548706193 -0.07950577735900835 0 0 255 0
1.7848425865173136 -0.3167890548706195 -0.1295057773590084 0 0 255 0
1.7848425865173136 -0.3167890548706195 -0.07950577735900835 0 0 255 0
1.7848425865173136 -0.26678905487061966 -0.1295057773590084 0 0 255 0
1.7848425865173136 -0.26678905487061966 -0.07950577735900835 0 0 255 0
1.7848425865173136 -0.21678905487061986 -0.1295057773590084 0 0 255 0
1.7848425865173136 -0.21678905487061986 -0.07950577735900835 0 0 255 0
1.7848425865173136 -0.16678905487062004 -0.1295057773590084 0 0 255 0
1.7848425865173136 -0.16678905487062004 -0.07950577735900835 0 0 255 0
1.7848425865173136 -0.11678905487062022 -0.1295057773590084 0 0 255 0
1.7848425865173136 -0.11678905487062022 -0.07950577735900835 0 0 255 0
1.7848425865173136 -0.0667890548706204 -0.1295057773590084 0 0 255 0
1.7848425865173136 -0.0667890548706204 -0.07950577735900835 0 0 255 0
1.7848425865173136 -0.016789054870620566 -0.07950577735900835 0 0 255 0
1.7848425865173136 -0.016789054870620566 -0.0295057773590083 0 0 255 0
1.7848425865173136 0.033210945129379256 -0.1295057773590084 0 0 255 0
1.7848425865173136 0.033210945129379256 -0.07950577735900835 0 0 255 0
1.7848425865173136 0.033210945129379256 -0.0295057773590083 0 0 255 0
1.7848425865173136 0.08321094512937907 -0.1295057773590084 0 0 255 0
1.7848425865173136 0.08321094512937907 -0.07950577735900835 0 0 255 0
1.7848425865173136 0.08321094512937907 -0.0295057773590083 0 0 255 0
1.7848425865173136 0.1332109451293789 -0.1295057773590084 0 0 255 0
1.7848425865173136 0.1332109451293789 -0.07950577735900835 0 0 255 0
1.7848425865173136 0.1332109451293789 -0.0295057773590083 0 0 255 0
1.7848425865173136 0.18321094512937872 -0.07950577735900835 0 0 255 0
1.7848425865173136 0.18321094512937872 -0.0295057773590083 0 0 255 0
1.7848425865173136 0.23321094512937854 -0.07950577735900835 0 0 255 0
1.7848425865173136 0.2832109451293784 -0.1295057773590084 0 0 255 0
1.7848425865173136 0.2832109451293784 -0.07950577735900835 0 0 255 0
1.7848425865173136 0.2832109451293784 -0.0295057773590083 0 0 255 0
1.7848425865173136 0.3332109451293782 -0.1295057773590084 0 0 255 0
1.7848425865173136 0.3332109451293782 -0.07950577735900835 0 0 255 0
1.7848425865173136 0.3332109451293782 -0.0295057773590083 0 0 255 0
1.7848425865173136 0.38321094512937803 -0.07950577735900835 0 0 255 0
1.7848425865173136 0.38321094512937803 -0.0295057773590083 0 0 255 0
1.7848425865173136 0.43321094512937786 -0.07950577735900835 0 0 255 0
1.7848425865173136 0.43321094512937786 -0.0295057773590083 0 0 255 0
1.7848425865173136 0.4832109451293777 -0.07950577735900835 0 0 255 0
1.7848425865173136 0.4832109451293777 -0.0295057773590083 0 0 255 0
1.7848425865173136 0.5332109451293775 -0.07950577735900835 0 0 255 0
1.7848425865173136 0.5332109451293775 -0.0295057773590083 0 0 255 0
1.7848425865173136 0.5332109451293775 0.020494222640991745 0 0 255 0
1.7848425865173136 1.4332109451293742 -0.07950577735900835 0 0 255 0
1.8348425865173135 -2.5167890548706118 -0.2795057773590085 0 0 255 0
1.8348425865173135 -2.466789054870612 -0.4795057773590087 0 0 255 0
1.8348425865173135 -2.466789054870612 -0.42950577735900863 0 0 255 0
1.8348425865173135 -2.466789054870612 -0.3795057773590086 0 0 255 0
1.8348425865173135 -2.416789054870612 -0.4795057773590087 0 0 255 0
1.8348425865173135 -2.416789054870612 -0.42950577735900863 0 0 255 0
1.8348425865173135 -2.416789054870612 -0.3795057773590086 0 0 255 0
1.8348425865173135 -2.3667890548706123 -0.5295057773590087 0 0 255 0
1.8348425865173135 -2.3667890548706123 -0.4795057773590087 0 0 255 0
1.8348425865173135 -2.3667890548706123 -0.42950577735900863 0 0 255 0
1.8348425865173135 -2.3667890548706123 -0.3795057773590086 0 0 255 0
1.8348425865173135 -2.3167890548706125 -0.5295057773590087 0 0 255 0
1.8348425865173135 -2.3167890548706125 -0.4795057773590087 0 0 255 0
1.8348425865173135 -2.3167890548706125 -0.42950577735900863 0 0 255 0
1.8348425865173135 -2.3167890548706125 -0.3795057773590086 0 0 255 0
1.8348425865173135 -2.2667890548706127 -0.5795057773590088 0 0 255 0
1.8348425865173135 -2.2667890548706127 -0.5295057773590087 0 0 255 0
1.8348425865173135 -2.2667890548706127 -0.4795057773590087 0 0 255 0
1.8348425865173135 -2.2667890548706127 -0.42950577735900863 0 0 255 0
1.8348425865173135 -2.2667890548706127 -0.3795057773590086 0 0 255 0
1.8348425865173135 -2.216789054870613 -0.5295057773590087 0 0 255 0
1.8348425865173135 -2.216789054870613 -0.4795057773590087 0 0 255 0
1.8348425865173135 -2.216789054870613 -0.42950577735900863 0 0 255 0
