ply
format ascii 1.0
element vertex 695
property float x
property float y
property float z
property uchar red
property uchar green
property uchar blue
property int layer
end_header
0.884842586517317 2.9832109451293687 0.020494222640991745 0 255 0 0
0.884842586517317 3.0332109451293685 0.020494222640991745 0 255 0 0
0.884842586517317 3.0832109451293683 0.020494222640991745 0 255 0 0
0.9348425865173168 -2.716789054870611 -0.0295057773590083 0 255 0 0
0.9348425865173168 -2.716789054870611 0.020494222640991745 0 255 0 0
0.9348425865173168 -2.6167890548706114 -0.17950577735900844 0 255 0 0
0.9348425865173168 -2.6167890548706114 -0.1295057773590084 0 255 0 0
0.9348425865173168 -2.5667890548706116 -0.2795057773590085 0 255 0 0
0.9348425865173168 -2.5667890548706116 -0.22950577735900848 0 255 0 0
0.9348425865173168 -2.5667890548706116 -0.17950577735900844 0 255 0 0
0.9348425865173168 -2.5667890548706116 -0.1295057773590084 0 255 0 0
0.9348425865173168 -2.5167890548706118 -0.32950577735900854 0 255 0 0
0.9348425865173168 -2.5167890548706118 -0.2795057773590085 0 255 0 0
0.9348425865173168 -2.5167890548706118 -0.22950577735900848 0 255 0 0
0.9348425865173168 -2.5167890548706118 -0.17950577735900844 0 255 0 0
0.9348425865173168 -2.5167890548706118 -0.1295057773590084 0 255 0 0
0.9348425865173168 -2.466789054870612 -0.32950577735900854 0 255 0 0
0.9348425865173168 -2.466789054870612 -0.2795057773590085 0 255 0 0
0.9348425865173168 -2.466789054870612 -0.22950577735900848 0 255 0 0
0.9348425865173168 -2.466789054870612 -0.17950577735900844 0 255 0 0
0.9348425865173168 -2.466789054870612 -0.1295057773590084 0 255 0 0
0.9348425865173168 -2.416789054870612 -0.3795057773590086 0 255 0 0
0.9348425865173168 -2.416789054870612 -0.32950577735900854 0 255 0 0
0.9348425865173168 -2.416789054870612 -0.2795057773590085 0 255 0 0
0.9348425865173168 -2.416789054870612 -0.22950577735900848 0 255 0 0
0.9348425865173168 -2.416789054870612 -0.17950577735900844 0 255 0 0
0.9348425865173168 -2.416789054870612 -0.1295057773590084 0 255 0 0
0.9348425865173168 -2.3667890548706123 -0.42950577735900863 0 255 0 0
0.9348425865173168 -2.3667890548706123 -0.3795057773590086 0 255 0 0
0.9348425865173168 -2.3667890548706123 -0.32950577735900854 0 255 0 0
0.9348425865173168 -2.3667890548706123 -0.2795057773590085 0 255 0 0
0.9348425865173168 -2.3667890548706123 -0.22950577735900848 0 255 0 0
0.9348425865173168 -2.3667890548706123 -0.17950577735900844 0 255 0 0
0.9348425865173168 -2.3667890548706123 -0.1295057773590084 0 255 0 0
0.9348425865173168 -2.3167890548706125 -0.42950577735900863 0 255 0 0
0.9348425865173168 -2.3167890548706125 -0.3795057773590086 0 255 0 0
0.9348425865173168 -2.3167890548706125 -0.32950577735900854 0 255 0 0
0.9348425865173168 -2.3167890548706125 -0.2795057773590085 0 255 0 0
0.9348425865173168 -2.3167890548706125 -0.22950577735900848 0 255 0 0
0.9348425865173168 -2.3167890548706125 -0.17950577735900844 0 255 0 0
0.9348425865173168 -2.2667890548706127 -0.42950577735900863 0 255 0 0
0.9348425865173168 -2.2667890548706127 -0.3795057773590086 0 255 0 0
0.9348425865173168 -2.2667890548706127 -0.32950577735900854 0 255 0 0
0.9348425865173168 -2.2667890548706127 -0.2795057773590085 0 255 0 0
0.9348425865173168 -2.2667890548706127 -0.22950577735900848 0 255 0 0
0.9348425865173168 -2.2667890548706127 -0.17950577735900844 0 255 0 0
0.9348425865173168 -2.216789054870613 -0.4795057773590087 0 255 0 0
0.9348425865173168 -2.216789054870613 -0.42950577735900863 0 255 0 0
0.9348425865173168 -2.216789054870613 -0.3795057773590086 0 255 0 0
0.9348425865173168 -2.216789054870613 -0.32950577735900854 0 255 0 0
0.9348425865173168 -2.216789054870613 -0.2795057773590085 0 255 0 0
0.9348425865173168 -2.216789054870613 -0.22950577735900848 0 255 0 0
0.9348425865173168 -2.216789054870613 -0.17950577735900844 0 255 0 0
0.9348425865173168 -2.166789054870613 -0.4795057773590087 0 255 0 0
0.9348425865173168 -2.166789054870613 -0.42950577735900863 0 255 0 0
0.9348425865173168 -2.166789054870613 -0.3795057773590086 0 255 0 0
0.9348425865173168 -2.166789054870613 -0.32950577735900854 0 255 0 0
0.9348425865173168 -2.166789054870613 -0.2795057773590085 0 255 0 0
0.9348425865173168 -2.166789054870613 -0.22950577735900848 0 255 0 0
0.9348425865173168 -2.166789054870613 -0.17950577735900844 0 255 0 0
0.9348425865173168 -2.116789054870613 -0.4795057773590087 0 255 0 0
0.9348425865173168 -2.116789054870613 -0.42950577735900863 0 255 0 0
0.9348425865173168 -2.116789054870613 -0.3795057773590086 0 255 0 0
0.9348425865173168 -2.116789054870613 -0.32950577735900854 0 255 0 0
0.9348425865173168 -2.116789054870613 -0.2795057773590085 0 255 0 0
0.9348425865173168 -2.116789054870613 -0.22950577735900848 0 255 0 0
0.9348425865173168 -2.116789054870613 -0.17950577735900844 0 255 0 0
0.9348425865173168 -2.0667890548706134 -0.4795057773590087 0 255 0 0
0.9348425865173168 -2.0667890548706134 -0.42950577735900863 0 255 0 0
0.9348425865173168 -2.0667890548706134 -0.3795057773590086 0 255 0 0
0.9348425865173168 -2.0667890548706134 -0.32950577735900854 0 255 0 0
0.9348425865173168 -2.0667890548706134 -0.2795057773590085 0 255 0 0
0.9348425865173168 -2.0667890548706134 -0.22950577735900848 0 255 0 0
0.9348425865173168 -2.0667890548706134 -0.17950577735900844 0 255 0 0
0.9348425865173168 -2.0167890548706136 -0.4795057773590087 0 255 0 0
0.9348425865173168 -2.0167890548706136 -0.42950577735900863 0 255 0 0
0.9348425865173168 -2.0167890548706136 -0.3795057773590086 0 255 0 0
0.9348425865173168 -2.0167890548706136 -0.32950577735900854 0 255 0 0
0.9348425865173168 -2.0167890548706136 -0.2795057773590085 0 255 0 0
0.9348425865173168 -2.0167890548706136 -0.22950577735900848 0 255 0 0
0.9348425865173168 -2.0167890548706136 -0.17950577735900844 0 255 0 0
0.9348425865173168 -1.9667890548706137 -0.5295057773590087 0 255 0 0
0.9348425865173168 -1.9667890548706137 -0.4795057773590087 0 255 0 0
0.9348425865173168 -1.9667890548706137 -0.42950577735900863 0 255 0 0
0.9348425865173168 -1.9667890548706137 -0.3795057773590086 0 255 0 0
0.9348425865173168 -1.9667890548706137 -0.32950577735900854 0 255 0 0
0.9348425865173168 -1.9667890548706137 -0.2795057773590085 0 255 0 0
0.9348425865173168 -1.9667890548706137 -0.22950577735900848 0 255 0 0
0.9348425865173168 -1.9667890548706137 -0.17950577735900844 0 255 0 0
0.9348425865173168 -1.916789054870614 -0.5295057773590087 0 255 0 0
0.9348425865173168 -1.916789054870614 -0.4795057773590087 0 255 0 0
0.9348425865173168 -1.916789054870614 -0.42950577735900863 0 255 0 0
0.9348425865173168 -1.916789054870614 -0.3795057773590086 0 255 0 0
0.9348425865173168 -1.916789054870614 -0.32950577735900854 0 255 0 0
0.9348425865173168 -1.916789054870614 -0.2795057773590085 0 255 0 0
0.9348425865173168 -1.916789054870614 -0.22950577735900848 0 255 0 0
0.9348425865173168 -1.916789054870614 -0.17950577735900844 0 255 0 0
0.9348425865173168 -1.866789054870614 -0.5295057773590087 0 255 0 0
0.9348425865173168 -1.866789054870614 -0.4795057773590087 0 255 0 0
0.9348425865173168 -1.866789054870614 -0.42950577735900863 0 255 0 0
0.9348425865173168 -1.866789054870614 -0.3795057773590086 0 255 0 0
0.9348425865173168 -1.866789054870614 -0.32950577735900854 0 255 0 0
0.9348425865173168 -1.866789054870614 -0.2795057773590085 0 255 0 0
0.9348425865173168 -1.866789054870614 -0.22950577735900848 0 255 0 0
0.9348425865173168 -1.866789054870614 -0.17950577735900844 0 255 0 0
0.9348425865173168 -1.8167890548706143 -0.5295057773590087 0 255 0 0
0.9348425865173168 -1.8167890548706143 -0.4795057773590087 0 255 0 0
0.9348425865173168 -1.8167890548706143 -0.42950577735900863 0 255 0 0
0.9348425865173168 -1.8167890548706143 -0.3795057773590086 0 255 0 0
0.9348425865173168 -1.8167890548706143 -0.32950577735900854 0 255 0 0
0.9348425865173168 -1.8167890548706143 -0.2795057773590085 0 255 0 0
0.9348425865173168 -1.8167890548706143 -0.22950577735900848 0 255 0 0
0.9348425865173168 -1.7667890548706144 -0.5295057773590087 0 255 0 0
0.9348425865173168 -1.7667890548706144 -0.4795057773590087 0 255 0 0
0.9348425865173168 -1.7667890548706144 -0.42950577735900863 0 255 0 0
0.9348425865173168 -1.7667890548706144 -0.3795057773590086 0 255 0 0
0.9348425865173168 -1.7667890548706144 -0.32950577735900854 0 255 0 0
0.9348425865173168 -1.7667890548706144 -0.2795057773590085 0 255 0 0
0.9348425865173168 -1.7667890548706144 -0.22950577735900848 0 255 0 0
0.9348425865173168 -1.7167890548706146 -0.4795057773590087 0 255 0 0
0.9348425865173168 -1.7167890548706146 -0.42950577735900863 0 255 0 0
0.9348425865173168 -1.7167890548706146 -0.3795057773590086 0 255 0 0
0.9348425865173168 -1.7167890548706146 -0.32950577735900854 0 255 0 0
0.9348425865173168 -1.7167890548706146 -0.2795057773590085 0 255 0 0
0.9348425865173168 -1.7167890548706146 -0.22950577735900848 0 255 0 0
0.9348425865173168 -1.6667890548706148 -0.4795057773590087 0 255 0 0
0.9348425865173168 -1.6667890548706148 -0.42950577735900863 0 255 0 0
0.9348425865173168 -1.6667890548706148 -0.3795057773590086 0 255 0 0
0.9348425865173168 -1.6667890548706148 -0.32950577735900854 0 255 0 0
0.9348425865173168 -1.6667890548706148 -0.2795057773590085 0 255 0 0
0.9348425865173168 -1.6667890548706148 -0.22950577735900848 0 255 0 0
0.9348425865173168 -1.616789054870615 -0.4795057773590087 0 255 0 0
0.9348425865173168 -1.616789054870615 -0.42950577735900863 0 255 0 0
0.9348425865173168 -1.616789054870615 -0.3795057773590086 0 255 0 0
0.9348425865173168 -1.616789054870615 -0.32950577735900854 0 255 0 0
0.9348425865173168 -1.616789054870615 -0.2795057773590085 0 255 0 0
0.9348425865173168 -1.616789054870615 -0.22950577735900848 0 255 0 0
0.9348425865173168 -1.5667890548706151 -0.4795057773590087 0 255 0 0
0.9348425865173168 -1.5667890548706151 -0.42950577735900863 0 255 0 0
0.9348425865173168 -1.5667890548706151 -0.3795057773590086 0 255 0 0
0.9348425865173168 -1.5667890548706151 -0.32950577735900854 0 255 0 0
0.9348425865173168 -1.5667890548706151 -0.2795057773590085 0 255 0 0
0.9348425865173168 -1.5667890548706151 -0.22950577735900848 0 255 0 0
0.9348425865173168 -1.5167890548706153 -0.4795057773590087 0 255 0 0
0.9348425865173168 -1.5167890548706153 -0.42950577735900863 0 255 0 0
0.9348425865173168 -1.5167890548706153 -0.3795057773590086 0 255 0 0
0.9348425865173168 -1.5167890548706153 -0.32950577735900854 0 255 0 0
0.9348425865173168 -1.5167890548706153 -0.2795057773590085 0 255 0 0
0.9348425865173168 -1.5167890548706153 -0.22950577735900848 0 255 0 0
0.9348425865173168 -1.4667890548706155 -0.4795057773590087 0 255 0 0
0.9348425865173168 -1.4667890548706155 -0.42950577735900863 0 255 0 0
0.9348425865173168 -1.4667890548706155 -0.3795057773590086 0 255 0 0
0.9348425865173168 -1.4667890548706155 -0.32950577735900854 0 255 0 0
0.9348425865173168 -1.4667890548706155 -0.2795057773590085 0 255 0 0
0.9348425865173168 -1.4667890548706155 -0.22950577735900848 0 255 0 0
0.9348425865173168 -1.4167890548706157 -0.4795057773590087 0 255 0 0
0.9348425865173168 -1.4167890548706157 -0.42950577735900863 0 255 0 0
0.9348425865173168 -1.4167890548706157 -0.3795057773590086 0 255 0 0
0.9348425865173168 -1.4167890548706157 -0.32950577735900854 0 255 0 0
0.9348425865173168 -1.4167890548706157 -0.2795057773590085 0 255 0 0
0.9348425865173168 -1.3667890548706159 -0.4795057773590087 0 255 0 0
0.9348425865173168 -1.3667890548706159 -0.42950577735900863 0 255 0 0
0.9348425865173168 -1.3667890548706159 -0.3795057773590086 0 255 0 0
0.9348425865173168 -1.3667890548706159 -0.32950577735900854 0 255 0 0
0.9348425865173168 -1.316789054870616 -0.4795057773590087 0 255 0 0
0.9348425865173168 -1.316789054870616 -0.42950577735900863 0 255 0 0
0.9348425865173168 -1.2667890548706162 -0.4795057773590087 0 255 0 0
0.9348425865173168 -1.2667890548706162 -0.42950577735900863 0 255 0 0
0.9348425865173168 -1.2167890548706164 -0.4795057773590087 0 255 0 0
0.9348425865173168 -1.2167890548706164 -0.42950577735900863 0 255 0 0
0.9348425865173168 -1.1667890548706166 -0.42950577735900863 0 255 0 0
0.9348425865173168 -1.1167890548706167 -0.4795057773590087 0 255 0 0
0.9348425865173168 -1.1167890548706167 -0.42950577735900863 0 255 0 0
0.9348425865173168 -1.066789054870617 -0.4795057773590087 0 255 0 0
0.9348425865173168 -1.066789054870617 -0.42950577735900863 0 255 0 0
0.9348425865173168 -1.016789054870617 -0.4795057773590087 0 255 0 0
0.9348425865173168 -1.016789054870617 -0.42950577735900863 0 255 0 0
0.9348425865173168 -0.9667890548706172 -0.42950577735900863 0 255 0 0
0.9348425865173168 -0.9167890548706173 -0.0295057773590083 0 255 0 0
0.9348425865173168 1.5832109451293737 0.020494222640991745 0 255 0 0
0.9348425865173168 1.6332109451293735 0.020494222640991745 0 255 0 0
0.9348425865173168 1.6832109451293733 0.020494222640991745 0 255 0 0
0.9348425865173168 1.7332109451293731 -0.0295057773590083 0 255 0 0
0.9348425865173168 1.7332109451293731 0.020494222640991745 0 255 0 0
0.9348425865173168 1.783210945129373 -0.0295057773590083 0 255 0 0
0.9348425865173168 1.783210945129373 0.020494222640991745 0 255 0 0
0.9348425865173168 1.8332109451293728 -0.0295057773590083 0 255 0 0
0.9348425865173168 1.8332109451293728 0.020494222640991745 0 255 0 0
0.9348425865173168 1.8832109451293726 -0.0295057773590083 0 255 0 0
0.9348425865173168 1.8832109451293726 0.020494222640991745 0 255 0 0
0.9348425865173168 1.9332109451293724 -0.0295057773590083 0 255 0 0
0.9348425865173168 1.9332109451293724 0.020494222640991745 0 255 0 0
0.9348425865173168 1.9832109451293722 -0.0295057773590083 0 255 0 0
0.9348425865173168 1.9832109451293722 0.020494222640991745 0 255 0 0
0.9348425865173168 2.033210945129372 -0.0295057773590083 0 255 0 0
0.9348425865173168 2.033210945129372 0.020494222640991745 0 255 0 0
0.9348425865173168 2.083210945129372 -0.0295057773590083 0 255 0 0
0.9348425865173168 2.083210945129372 0.020494222640991745 0 255 0 0
0.9348425865173168 2.1332109451293717 0.020494222640991745 0 255 0 0
0.9348425865173168 2.1832109451293715 0.020494222640991745 0 255 0 0
0.9348425865173168 2.2332109451293713 0.020494222640991745 0 255 0 0
0.9348425865173168 2.283210945129371 -0.0295057773590083 0 255 0 0
0.9348425865173168 2.283210945129371 0.020494222640991745 0 255 0 0
0.9348425865173168 2.333210945129371 -0.0295057773590083 0 255 0 0
0.9348425865173168 2.333210945129371 0.020494222640991745 0 255 0 0
0.9348425865173168 2.383210945129371 -0.0295057773590083 0 255 0 0
0.9348425865173168 2.383210945129371 0.020494222640991745 0 255 0 0
0.9348425865173168 2.4332109451293706 -0.0295057773590083 0 255 0 0
0.9348425865173168 2.4832109451293705 -0.0295057773590083 0 255 0 0
0.9348425865173168 2.5332109451293703 -0.0295057773590083 0 255 0 0
0.9348425865173168 2.58321094512937 -0.0295057773590083 0 255 0 0
0.9348425865173168 2.63321094512937 -0.0295057773590083 0 255 0 0
0.9348425865173168 2.63321094512937 0.020494222640991745 0 255 0 0
0.9348425865173168 2.6832109451293698 -0.0295057773590083 0 255 0 0
0.9348425865173168 2.6832109451293698 0.020494222640991745 0 255 0 0
0.9348425865173168 2.7332109451293696 -0.0295057773590083 0 255 0 0
0.9348425865173168 2.7332109451293696 0.020494222640991745 0 255 0 0
0.9348425865173168 2.7832109451293694 -0.0295057773590083 0 255 0 0
0.9348425865173168 2.833210945129369 -0.0295057773590083 0 255 0 0
0.9348425865173168 2.833210945129369 0.020494222640991745 0 255 0 0
0.9348425865173168 2.883210945129369 -0.0295057773590083 0 255 0 0
0.9348425865173168 2.883210945129369 0.020494222640991745 0 255 0 0
0.9348425865173168 2.933210945129369 -0.0295057773590083 0 255 0 0
0.9348425865173168 2.933210945129369 0.020494222640991745 0 255 0 0
0.9348425865173168 2.9832109451293687 -0.0295057773590083 0 255 0 0
0.9348425865173168 2.9832109451293687 0.020494222640991745 0 255 0 0
0.9348425865173168 3.0332109451293685 0.020494222640991745 0 255 0 0
0.9348425865173168 3.0832109451293683 0.020494222640991745 0 255 0 0
0.9848425865173166 -2.716789054870611 0.020494222640991745 0 255 0 0
0.9848425865173166 -2.6167890548706114 -0.1295057773590084 0 255 0 0
0.9848425865173166 -2.6167890548706114 -0.07950577735900835 0 255 0 0
0.9848425865173166 -2.5667890548706116 -0.17950577735900844 0 255 0 0
0.9848425865173166 -2.5667890548706116 -0.1295057773590084 0 255 0 0
0.9848425865173166 -2.5167890548706118 -0.22950577735900848 0 255 0 0
0.9848425865173166 -2.5167890548706118 -0.17950577735900844 0 255 0 0
0.9848425865173166 -2.5167890548706118 -0.1295057773590084 0 255 0 0
0.9848425865173166 -2.466789054870612 -0.22950577735900848 0 255 0 0
0.9848425865173166 -2.466789054870612 -0.17950577735900844 0 255 0 0
0.9848425865173166 -2.466789054870612 -0.1295057773590084 0 255 0 0
0.9848425865173166 -2.416789054870612 -0.22950577735900848 0 255 0 0
0.9848425865173166 -2.416789054870612 -0.17950577735900844 0 255 0 0
0.9848425865173166 -2.416789054870612 -0.1295057773590084 0 255 0 0
0.9848425865173166 -2.3667890548706123 -0.22950577735900848 0 255 0 0
0.9848425865173166 -2.3667890548706123 -0.17950577735900844 0 255 0 0
0.9848425865173166 -2.3667890548706123 -0.1295057773590084 0 255 0 0
0.9848425865173166 -2.3167890548706125 -0.17950577735900844 0 255 0 0
0.9848425865173166 -2.3167890548706125 -0.1295057773590084 0 255 0 0
0.9848425865173166 -2.2667890548706127 -0.22950577735900848 0 255 0 0
0.9848425865173166 -2.2667890548706127 -0.17950577735900844 0 255 0 0
0.9848425865173166 -2.216789054870613 -0.2795057773590085 0 255 0 0
0.9848425865173166 -2.216789054870613 -0.22950577735900848 0 255 0 0
0.9848425865173166 -2.216789054870613 -0.17950577735900844 0 255 0 0
0.9848425865173166 -2.166789054870613 -0.2795057773590085 0 255 0 0
0.9848425865173166 -2.166789054870613 -0.22950577735900848 0 255 0 0
0.9848425865173166 -2.166789054870613 -0.17950577735900844 0 255 0 0
0.9848425865173166 -2.116789054870613 -0.2795057773590085 0 255 0 0
0.9848425865173166 -2.116789054870613 -0.22950577735900848 0 255 0 0
0.9848425865173166 -2.116789054870613 -0.17950577735900844 0 255 0 0
0.9848425865173166 -2.0667890548706134 -0.3795057773590086 0 255 0 0
0.9848425865173166 -2.0667890548706134 -0.32950577735900854 0 255 0 0
0.9848425865173166 -2.0667890548706134 -0.2795057773590085 0 255 0 0
0.9848425865173166 -2.0667890548706134 -0.22950577735900848 0 255 0 0
0.9848425865173166 -2.0667890548706134 -0.17950577735900844 0 255 0 0
0.9848425865173166 -2.0167890548706136 -0.42950577735900863 0 255 0 0
0.9848425865173166 -2.0167890548706136 -0.3795057773590086 0 255 0 0
0.9848425865173166 -2.0167890548706136 -0.32950577735900854 0 255 0 0
0.9848425865173166 -2.0167890548706136 -0.2795057773590085 0 255 0 0
0.9848425865173166 -2.0167890548706136 -0.22950577735900848 0 255 0 0
0.9848425865173166 -2.0167890548706136 -0.17950577735900844 0 255 0 0
0.9848425865173166 -1.9667890548706137 -0.42950577735900863 0 255 0 0
0.9848425865173166 -1.9667890548706137 -0.3795057773590086 0 255 0 0
0.9848425865173166 -1.9667890548706137 -0.32950577735900854 0 255 0 0
0.9848425865173166 -1.9667890548706137 -0.2795057773590085 0 255 0 0
0.9848425865173166 -1.9667890548706137 -0.22950577735900848 0 255 0 0
0.9848425865173166 -1.9667890548706137 -0.17950577735900844 0 255 0 0
0.9848425865173166 -1.916789054870614 -0.4795057773590087 0 255 0 0
0.9848425865173166 -1.916789054870614 -0.42950577735900863 0 255 0 0
0.9848425865173166 -1.916789054870614 -0.3795057773590086 0 255 0 0
0.9848425865173166 -1.916789054870614 -0.32950577735900854 0 255 0 0
0.9848425865173166 -1.916789054870614 -0.2795057773590085 0 255 0 0
0.9848425865173166 -1.916789054870614 -0.22950577735900848 0 255 0 0
0.9848425865173166 -1.916789054870614 -0.17950577735900844 0 255 0 0
0.9848425865173166 -1.866789054870614 -0.4795057773590087 0 255 0 0
0.9848425865173166 -1.866789054870614 -0.42950577735900863 0 255 0 0
0.9848425865173166 -1.866789054870614 -0.3795057773590086 0 255 0 0
0.9848425865173166 -1.866789054870614 -0.32950577735900854 0 255 0 0
0.9848425865173166 -1.866789054870614 -0.2795057773590085 0 255 0 0
0.9848425865173166 -1.866789054870614 -0.22950577735900848 0 255 0 0
0.9848425865173166 -1.866789054870614 -0.17950577735900844 0 255 0 0
0.9848425865173166 -1.8167890548706143 -0.4795057773590087 0 255 0 0
0.9848425865173166 -1.8167890548706143 -0.42950577735900863 0 255 0 0
0.9848425865173166 -1.8167890548706143 -0.3795057773590086 0 255 0 0
0.9848425865173166 -1.8167890548706143 -0.32950577735900854 0 255 0 0
0.9848425865173166 -1.8167890548706143 -0.2795057773590085 0 255 0 0
0.9848425865173166 -1.8167890548706143 -0.22950577735900848 0 255 0 0
0.9848425865173166 -1.8167890548706143 -0.17950577735900844 0 255 0 0
0.9848425865173166 -1.7667890548706144 -0.4795057773590087 0 255 0 0
0.9848425865173166 -1.7667890548706144 -0.42950577735900863 0 255 0 0
0.9848425865173166 -1.7667890548706144 -0.3795057773590086 0 255 0 0
0.9848425865173166 -1.7667890548706144 -0.32950577735900854 0 255 0 0
0.9848425865173166 -1.7667890548706144 -0.2795057773590085 0 255 0 0
0.9848425865173166 -1.7667890548706144 -0.22950577735900848 0 255 0 0
0.9848425865173166 -1.7167890548706146 -0.4795057773590087 0 255 0 0
0.9848425865173166 -1.7167890548706146 -0.42950577735900863 0 255 0 0
0.9848425865173166 -1.7167890548706146 -0.3795057773590086 0 255 0 0
0.9848425865173166 -1.7167890548706146 -0.32950577735900854 0 255 0 0
0.9848425865173166 -1.7167890548706146 -0.2795057773590085 0 255 0 0
0.9848425865173166 -1.7167890548706146 -0.22950577735900848 0 255 0 0
0.9848425865173166 -1.6667890548706148 -0.4795057773590087 0 255 0 0
0.9848425865173166 -1.6667890548706148 -0.42950577735900863 0 255 0 0
0.9848425865173166 -1.6667890548706148 -0.3795057773590086 0 255 0 0
0.9848425865173166 -1.6667890548706148 -0.32950577735900854 0 255 0 0
0.9848425865173166 -1.6667890548706148 -0.2795057773590085 0 255 0 0
0.9848425865173166 -1.6667890548706148 -0.22950577735900848 0 255 0 0
0.9848425865173166 -1.6667890548706148 -0.17950577735900844 0 255 0 0
0.9848425865173166 -1.616789054870615 -0.4795057773590087 0 255 0 0
0.9848425865173166 -1.616789054870615 -0.42950577735900863 0 255 0 0
0.9848425865173166 -1.616789054870615 -0.3795057773590086 0 255 0 0
0.9848425865173166 -1.616789054870615 -0.32950577735900854 0 255 0 0
0.9848425865173166 -1.616789054870615 -0.2795057773590085 0 255 0 0
0.9848425865173166 -1.616789054870615 -0.22950577735900848 0 255 0 0
0.9848425865173166 -1.5667890548706151 -0.4795057773590087 0 255 0 0
0.9848425865173166 -1.5667890548706151 -0.42950577735900863 0 255 0 0
0.9848425865173166 -1.5667890548706151 -0.3795057773590086 0 255 0 0
0.9848425865173166 -1.5667890548706151 -0.32950577735900854 0 255 0 0
0.9848425865173166 -1.5667890548706151 -0.2795057773590085 0 255 0 0
0.9848425865173166 -1.5667890548706151 -0.22950577735900848 0 255 0 0
0.9848425865173166 -1.5167890548706153 -0.4795057773590087 0 255 0 0
0.9848425865173166 -1.5167890548706153 -0.42950577735900863 0 255 0 0
0.9848425865173166 -1.5167890548706153 -0.3795057773590086 0 255 0 0
0.9848425865173166 -1.5167890548706153 -0.32950577735900854 0 255 0 0
0.9848425865173166 -1.5167890548706153 -0.2795057773590085 0 255 0 0
0.9848425865173166 -1.5167890548706153 -0.22950577735900848 0 255 0 0
0.9848425865173166 -1.4667890548706155 -0.4795057773590087 0 255 0 0
0.9848425865173166 -1.4667890548706155 -0.42950577735900863 0 255 0 0
0.9848425865173166 -1.4667890548706155 -0.3795057773590086 0 255 0 0
0.9848425865173166 -1.4667890548706155 -0.32950577735900854 0 255 0 0
0.9848425865173166 -1.4667890548706155 -0.2795057773590085 0 255 0 0
0.9848425865173166 -1.4667890548706155 -0.22950577735900848 0 255 0 0
0.9848425865173166 -1.4167890548706157 -0.4795057773590087 0 255 0 0
0.9848425865173166 -1.4167890548706157 -0.42950577735900863 0 255 0 0
0.9848425865173166 -1.4167890548706157 -0.3795057773590086 0 255 0 0
0.9848425865173166 -1.4167890548706157 -0.32950577735900854 0 255 0 0
0.9848425865173166 -1.4167890548706157 -0.2795057773590085 0 255 0 0
0.9848425865173166 -1.4167890548706157 -0.22950577735900848 0 255 0 0
0.9848425865173166 -1.3667890548706159 -0.4795057773590087 0 255 0 0
0.9848425865173166 -1.3667890548706159 -0.42950577735900863 0 255 0 0
0.9848425865173166 -1.3667890548706159 -0.3795057773590086 0 255 0 0
0.9848425865173166 -1.3667890548706159 -0.32950577735900854 0 255 0 0
0.9848425865173166 -1.316789054870616 -0.4795057773590087 0 255 0 0
0.9848425865173166 -1.316789054870616 -0.42950577735900863 0 255 0 0
0.9848425865173166 -1.2667890548706162 -0.4795057773590087 0 255 0 0
0.9848425865173166 -1.2667890548706162 -0.42950577735900863 0 255 0 0
0.9848425865173166 -1.2167890548706164 -0.4795057773590087 0 255 0 0
0.9848425865173166 -1.2167890548706164 -0.42950577735900863 0 255 0 0
0.9848425865173166 -1.1667890548706166 -0.4795057773590087 0 255 0 0
0.9848425865173166 -1.1667890548706166 -0.42950577735900863 0 255 0 0
0.9848425865173166 -1.1167890548706167 -0.4795057773590087 0 255 0 0
0.9848425865173166 -1.1167890548706167 -0.42950577735900863 0 255 0 0
0.9848425865173166 -1.066789054870617 -0.4795057773590087 0 255 0 0
0.9848425865173166 -1.066789054870617 -0.42950577735900863 0 255 0 0
0.9848425865173166 -1.016789054870617 -0.42950577735900863 0 255 0 0
0.9848425865173166 -0.9167890548706173 -0.07950577735900835 0 255 0 0
0.9848425865173166 1.5832109451293737 0.020494222640991745 0 255 0 0
0.9848425865173166 1.6332109451293735 0.020494222640991745 0 255 0 0
0.9848425865173166 1.6832109451293733 -0.0295057773590083 0 255 0 0
0.9848425865173166 1.6832109451293733 0.020494222640991745 0 255 0 0
0.9848425865173166 1.7332109451293731 -0.0295057773590083 0 255 0 0
0.9848425865173166 1.7332109451293731 0.020494222640991745 0 255 0 0
0.9848425865173166 1.783210945129373 -0.0295057773590083 0 255 0 0
0.9848425865173166 1.783210945129373 0.020494222640991745 0 255 0 0
0.9848425865173166 1.8332109451293728 -0.0295057773590083 0 255 0 0
0.9848425865173166 1.8332109451293728 0.020494222640991745 0 255 0 0
0.9848425865173166 1.8832109451293726 -0.0295057773590083 0 255 0 0
0.9848425865173166 1.8832109451293726 0.020494222640991745 0 255 0 0
0.9848425865173166 1.9332109451293724 -0.0295057773590083 0 255 0 0
0.9848425865173166 1.9332109451293724 0.020494222640991745 0 255 0 0
0.9848425865173166 1.9832109451293722 -0.0295057773590083 0 255 0 0
0.9848425865173166 1.9832109451293722 0.020494222640991745 0 255 0 0
0.9848425865173166 2.033210945129372 -0.0295057773590083 0 255 0 0
0.9848425865173166 2.033210945129372 0.020494222640991745 0 255 0 0
0.9848425865173166 2.083210945129372 -0.0295057773590083 0 255 0 0
0.9848425865173166 2.083210945129372 0.020494222640991745 0 255 0 0
0.9848425865173166 2.1332109451293717 -0.0295057773590083 0 255 0 0
0.9848425865173166 2.1332109451293717 0.020494222640991745 0 255 0 0
0.9848425865173166 2.1832109451293715 0.020494222640991745 0 255 0 0
0.9848425865173166 2.2332109451293713 0.020494222640991745 0 255 0 0
0.9848425865173166 2.283210945129371 -0.0295057773590083 0 255 0 0
0.9848425865173166 2.283210945129371 0.020494222640991745 0 255 0 0
0.9848425865173166 2.333210945129371 -0.0295057773590083 0 255 0 0
0.9848425865173166 2.333210945129371 0.020494222640991745 0 255 0 0
0.9848425865173166 2.383210945129371 -0.0295057773590083 0 255 0 0
0.9848425865173166 2.383210945129371 0.020494222640991745 0 255 0 0
0.9848425865173166 2.4332109451293706 -0.0295057773590083 0 255 0 0
0.9848425865173166 2.4832109451293705 -0.0295057773590083 0 255 0 0
0.9848425865173166 2.5332109451293703 -0.0295057773590083 0 255 0 0
0.9848425865173166 2.58321094512937 -0.0295057773590083 0 255 0 0
0.9848425865173166 2.63321094512937 -0.0295057773590083 0 255 0 0
0.9848425865173166 2.63321094512937 0.020494222640991745 0 255 0 0
0.9848425865173166 2.6832109451293698 -0.0295057773590083 0 255 0 0
0.9848425865173166 2.6832109451293698 0.020494222640991745 0 255 0 0
0.9848425865173166 2.7332109451293696 -0.0295057773590083 0 255 0 0
0.9848425865173166 2.7332109451293696 0.020494222640991745 0 255 0 0
0.9848425865173166 2.7832109451293694 -0.0295057773590083 0 255 0 0
0.9848425865173166 2.7832109451293694 0.020494222640991745 0 255 0 0
0.9848425865173166 2.833210945129369 -0.0295057773590083 0 255 0 0
0.9848425865173166 2.833210945129369 0.020494222640991745 0 255 0 0
0.9848425865173166 2.883210945129369 -0.0295057773590083 0 255 0 0
0.9848425865173166 2.883210945129369 0.020494222640991745 0 255 0 0
0.9848425865173166 2.933210945129369 -0.0295057773590083 0 255 0 0
0.9848425865173166 2.933210945129369 0.020494222640991745 0 255 0 0
0.9848425865173166 2.9832109451293687 -0.0295057773590083 0 255 0 0
0.9848425865173166 2.9832109451293687 0.020494222640991745 0 255 0 0
0.9848425865173166 3.0332109451293685 -0.0295057773590083 0 255 0 0
0.9848425865173166 3.0332109451293685 0.020494222640991745 0 255 0 0
0.9848425865173166 3.0832109451293683 0.020494222640991745 0 255 0 0
0.9848425865173166 3.2832109451293676 0.17049422264099187 0 255 0 0
0.9848425865173166 3.2832109451293676 0.22049422264099192 0 255 0 0
0.9848425865173166 3.2832109451293676 0.270494222640992 0 255 0 0
0.9848425865173166 3.2832109451293676 0.32049422264099203 0 255 0 0
1.0348425865173163 -2.5667890548706116 -0.1295057773590084 0 255 0 0
1.0348425865173163 -2.5667890548706116 -0.07950577735900835 0 255 0 0
1.0348425865173163 -2.5167890548706118 -0.1295057773590084 0 255 0 0
1.0348425865173163 -2.466789054870612 -0.1295057773590084 0 255 0 0
1.0348425865173163 -2.416789054870612 -0.1295057773590084 0 255 0 0
1.0348425865173163 -2.3667890548706123 -0.17950577735900844 0 255 0 0
1.0348425865173163 -2.3667890548706123 -0.1295057773590084 0 255 0 0
1.0348425865173163 -2.3167890548706125 -0.1295057773590084 0 255 0 0
1.0348425865173163 -2.116789054870613 -0.17950577735900844 0 255 0 0
1.0348425865173163 -2.116789054870613 -0.1295057773590084 0 255 0 0
1.0348425865173163 -2.116789054870613 -0.07950577735900835 0 255 0 0
1.0348425865173163 -2.0167890548706136 -0.17950577735900844 0 255 0 0
1.0348425865173163 -2.0167890548706136 -0.1295057773590084 0 255 0 0
1.0348425865173163 -2.0167890548706136 -0.07950577735900835 0 255 0 0
1.0348425865173163 -1.9667890548706137 -0.2795057773590085 0 255 0 0
1.0348425865173163 -1.9667890548706137 -0.17950577735900844 0 255 0 0
1.0348425865173163 -1.9667890548706137 -0.1295057773590084 0 255 0 0
1.0348425865173163 -1.916789054870614 -0.32950577735900854 0 255 0 0
1.0348425865173163 -1.916789054870614 -0.2795057773590085 0 255 0 0
1.0348425865173163 -1.916789054870614 -0.22950577735900848 0 255 0 0
1.0348425865173163 -1.916789054870614 -0.17950577735900844 0 255 0 0
1.0348425865173163 -1.866789054870614 -0.32950577735900854 0 255 0 0
1.0348425865173163 -1.866789054870614 -0.2795057773590085 0 255 0 0
1.0348425865173163 -1.866789054870614 -0.22950577735900848 0 255 0 0
1.0348425865173163 -1.866789054870614 -0.17950577735900844 0 255 0 0
1.0348425865173163 -1.8167890548706143 -0.32950577735900854 0 255 0 0
1.0348425865173163 -1.8167890548706143 -0.2795057773590085 0 255 0 0
1.0348425865173163 -1.8167890548706143 -0.22950577735900848 0 255 0 0
1.0348425865173163 -1.8167890548706143 -0.17950577735900844 0 255 0 0
1.0348425865173163 -1.7667890548706144 -0.3795057773590086 0 255 0 0
1.0348425865173163 -1.7667890548706144 -0.32950577735900854 0 255 0 0
1.0348425865173163 -1.7667890548706144 -0.2795057773590085 0 255 0 0
1.0348425865173163 -1.7667890548706144 -0.22950577735900848 0 255 0 0
1.0348425865173163 -1.7667890548706144 -0.17950577735900844 0 255 0 0
1.0348425865173163 -1.7167890548706146 -0.42950577735900863 0 255 0 0
1.0348425865173163 -1.7167890548706146 -0.3795057773590086 0 255 0 0
1.0348425865173163 -1.7167890548706146 -0.32950577735900854 0 255 0 0
1.0348425865173163 -1.7167890548706146 -0.2795057773590085 0 255 0 0
1.0348425865173163 -1.7167890548706146 -0.22950577735900848 0 255 0 0
1.0348425865173163 -1.7167890548706146 -0.17950577735900844 0 255 0 0
1.0348425865173163 -1.6667890548706148 -0.3795057773590086 0 255 0 0
1.0348425865173163 -1.6667890548706148 -0.32950577735900854 0 255 0 0
1.0348425865173163 -1.6667890548706148 -0.2795057773590085 0 255 0 0
1.0348425865173163 -1.6667890548706148 -0.22950577735900848 0 255 0 0
1.0348425865173163 -1.6667890548706148 -0.17950577735900844 0 255 0 0
1.0348425865173163 -1.616789054870615 -0.42950577735900863 0 255 0 0
1.0348425865173163 -1.616789054870615 -0.3795057773590086 0 255 0 0
1.0348425865173163 -1.616789054870615 -0.32950577735900854 0 255 0 0
1.0348425865173163 -1.616789054870615 -0.2795057773590085 0 255 0 0
1.0348425865173163 -1.616789054870615 -0.22950577735900848 0 255 0 0
1.0348425865173163 -1.616789054870615 -0.17950577735900844 0 255 0 0
1.0348425865173163 -1.5667890548706151 -0.42950577735900863 0 255 0 0
1.0348425865173163 -1.5667890548706151 -0.3795057773590086 0 255 0 0
1.0348425865173163 -1.5667890548706151 -0.32950577735900854 0 255 0 0
1.0348425865173163 -1.5667890548706151 -0.2795057773590085 0 255 0 0
1.0348425865173163 -1.5667890548706151 -0.22950577735900848 0 255 0 0
1.0348425865173163 -1.5667890548706151 -0.17950577735900844 0 255 0 0
1.0348425865173163 -1.5167890548706153 -0.42950577735900863 0 255 0 0
1.0348425865173163 -1.5167890548706153 -0.3795057773590086 0 255 0 0
1.0348425865173163 -1.5167890548706153 -0.32950577735900854 0 255 0 0
1.0348425865173163 -1.5167890548706153 -0.2795057773590085 0 255 0 0
1.0348425865173163 -1.5167890548706153 -0.22950577735900848 0 255 0 0
1.0348425865173163 -1.5167890548706153 -0.17950577735900844 0 255 0 0
1.0348425865173163 -1.4667890548706155 -0.4795057773590087 0 255 0 0
1.0348425865173163 -1.4667890548706155 -0.42950577735900863 0 255 0 0
1.0348425865173163 -1.4667890548706155 -0.3795057773590086 0 255 0 0
1.0348425865173163 -1.4667890548706155 -0.32950577735900854 0 255 0 0
1.0348425865173163 -1.4667890548706155 -0.2795057773590085 0 255 0 0
1.0348425865173163 -1.4667890548706155 -0.22950577735900848 0 255 0 0
1.0348425865173163 -1.4667890548706155 -0.17950577735900844 0 255 0 0
1.0348425865173163 -1.4167890548706157 -0.4795057773590087 0 255 0 0
1.0348425865173163 -1.4167890548706157 -0.42950577735900863 0 255 0 0
1.0348425865173163 -1.4167890548706157 -0.3795057773590086 0 255 0 0
1.0348425865173163 -1.4167890548706157 -0.32950577735900854 0 255 0 0
1.0348425865173163 -1.4167890548706157 -0.2795057773590085 0 255 0 0
1.0348425865173163 -1.4167890548706157 -0.22950577735900848 0 255 0 0
1.0348425865173163 -1.3667890548706159 -0.4795057773590087 0 255 0 0
1.0348425865173163 -1.3667890548706159 -0.42950577735900863 0 255 0 0
1.0348425865173163 -1.3667890548706159 -0.3795057773590086 0 255 0 0
1.0348425865173163 -1.3667890548706159 -0.32950577735900854 0 255 0 0
1.0348425865173163 -1.316789054870616 -0.4795057773590087 0 255 0 0
1.0348425865173163 -1.316789054870616 -0.42950577735900863 0 255 0 0
1.0348425865173163 -1.2667890548706162 -0.4795057773590087 0 255 0 0
1.0348425865173163 -1.2667890548706162 -0.42950577735900863 0 255 0 0
1.0348425865173163 -1.2167890548706164 -0.4795057773590087 0 255 0 0
1.0348425865173163 -1.2167890548706164 -0.42950577735900863 0 255 0 0
1.0348425865173163 -1.1667890548706166 -0.4795057773590087 0 255 0 0
1.0348425865173163 -1.1667890548706166 -0.42950577735900863 0 255 0 0
1.0348425865173163 -1.1167890548706167 -0.4795057773590087 0 255 0 0
1.0348425865173163 -1.1167890548706167 -0.42950577735900863 0 255 0 0
1.0348425865173163 -1.066789054870617 -0.4795057773590087 0 255 0 0
1.0348425865173163 -1.066789054870617 -0.42950577735900863 0 255 0 0
1.0348425865173163 1.5332109451293738 0.020494222640991745 0 255 0 0
1.0348425865173163 1.5832109451293737 0.020494222640991745 0 255 0 0
1.0348425865173163 1.6332109451293735 0.020494222640991745 0 255 0 0
1.0348425865173163 1.6832109451293733 -0.0295057773590083 0 255 0 0
1.0348425865173163 1.6832109451293733 0.020494222640991745 0 255 0 0
1.0348425865173163 1.7332109451293731 -0.0295057773590083 0 255 0 0
1.0348425865173163 1.7332109451293731 0.020494222640991745 0 255 0 0
1.0348425865173163 1.783210945129373 -0.0295057773590083 0 255 0 0
1.0348425865173163 1.783210945129373 0.020494222640991745 0 255 0 0
1.0348425865173163 1.8332109451293728 -0.0295057773590083 0 255 0 0
1.0348425865173163 1.8332109451293728 0.020494222640991745 0 255 0 0
1.0348425865173163 1.8832109451293726 -0.0295057773590083 0 255 0 0
1.0348425865173163 1.8832109451293726 0.020494222640991745 0 255 0 0
1.0348425865173163 1.9332109451293724 -0.0295057773590083 0 255 0 0
1.0348425865173163 1.9332109451293724 0.020494222640991745 0 255 0 0
1.0348425865173163 1.9832109451293722 -0.0295057773590083 0 255 0 0
1.0348425865173163 1.9832109451293722 0.020494222640991745 0 255 0 0
1.0348425865173163 2.033210945129372 -0.0295057773590083 0 255 0 0
1.0348425865173163 2.033210945129372 0.020494222640991745 0 255 0 0
1.0348425865173163 2.083210945129372 -0.0295057773590083 0 255 0 0
1.0348425865173163 2.083210945129372 0.020494222640991745 0 255 0 0
1.0348425865173163 2.1332109451293717 -0.0295057773590083 0 255 0 0
1.0348425865173163 2.1332109451293717 0.020494222640991745 0 255 0 0
1.0348425865173163 2.1832109451293715 -0.0295057773590083 0 255 0 0
1.0348425865173163 2.1832109451293715 0.020494222640991745 0 255 0 0
1.0348425865173163 2.2332109451293713 -0.0295057773590083 0 255 0 0
1.0348425865173163 2.2332109451293713 0.020494222640991745 0 255 0 0
1.0348425865173163 2.283210945129371 -0.0295057773590083 0 255 0 0
1.0348425865173163 2.283210945129371 0.020494222640991745 0 255 0 0
1.0348425865173163 2.333210945129371 -0.0295057773590083 0 255 0 0
1.0348425865173163 2.333210945129371 0.020494222640991745 0 255 0 0
1.0348425865173163 2.383210945129371 -0.0295057773590083 0 255 0 0
1.0348425865173163 2.383210945129371 0.020494222640991745 0 255 0 0
1.0348425865173163 2.4332109451293706 -0.0295057773590083 0 255 0 0
1.0348425865173163 2.4332109451293706 0.020494222640991745 0 255 0 0
1.0348425865173163 2.4832109451293705 -0.0295057773590083 0 255 0 0
1.0348425865173163 2.5332109451293703 -0.0295057773590083 0 255 0 0
1.0348425865173163 2.58321094512937 -0.0295057773590083 0 255 0 0
1.0348425865173163 2.63321094512937 -0.0295057773590083 0 255 0 0
1.0348425865173163 2.63321094512937 0.020494222640991745 0 255 0 0
1.0348425865173163 2.6832109451293698 -0.0295057773590083 0 255 0 0
1.0348425865173163 2.6832109451293698 0.020494222640991745 0 255 0 0
1.0348425865173163 2.7332109451293696 -0.0295057773590083 0 255 0 0
1.0348425865173163 2.7332109451293696 0.020494222640991745 0 255 0 0
1.0348425865173163 2.7832109451293694 -0.0295057773590083 0 255 0 0
1.0348425865173163 2.833210945129369 -0.0295057773590083 0 255 0 0
1.0348425865173163 2.833210945129369 0.020494222640991745 0 255 0 0
1.0348425865173163 2.883210945129369 -0.0295057773590083 0 255 0 0
1.0348425865173163 2.883210945129369 0.020494222640991745 0 255 0 0
1.0348425865173163 2.933210945129369 -0.0295057773590083 0 255 0 0
1.0348425865173163 2.933210945129369 0.020494222640991745 0 255 0 0
1.0348425865173163 2.9832109451293687 -0.0295057773590083 0 255 0 0
1.0348425865173163 2.9832109451293687 0.020494222640991745 0 255 0 0
1.0348425865173163 3.0332109451293685 -0.0295057773590083 0 255 0 0
1.0348425865173163 3.0332109451293685 0.020494222640991745 0 255 0 0
1.0348425865173163 3.0832109451293683 -0.0295057773590083 0 255 0 0
1.0348425865173163 3.0832109451293683 0.020494222640991745 0 255 0 0
1.0848425865173161 -2.3667890548706123 -0.07950577735900835 0 255 0 0
1.0848425865173161 -2.3167890548706125 -0.0295057773590083 0 255 0 0
1.0848425865173161 -2.2667890548706127 -0.0295057773590083 0 255 0 0
1.0848425865173161 -1.916789054870614 -0.07950577735900835 0 255 0 0
1.0848425865173161 -1.8167890548706143 -0.22950577735900848 0 255 0 0
1.0848425865173161 -1.7167890548706146 -0.17950577735900844 0 255 0 0
1.0848425865173161 -1.7167890548706146 -0.1295057773590084 0 255 0 0
1.0848425865173161 -1.6667890548706148 -0.2795057773590085 0 255 0 0
1.0848425865173161 -1.6667890548706148 -0.22950577735900848 0 255 0 0
1.0848425865173161 -1.6667890548706148 -0.17950577735900844 0 255 0 0
1.0848425865173161 -1.6667890548706148 -0.1295057773590084 0 255 0 0
1.0848425865173161 -1.616789054870615 -0.32950577735900854 0 255 0 0
1.0848425865173161 -1.616789054870615 -0.2795057773590085 0 255 0 0
1.0848425865173161 -1.616789054870615 -0.22950577735900848 0 255 0 0
1.0848425865173161 -1.616789054870615 -0.17950577735900844 0 255 0 0
1.0848425865173161 -1.616789054870615 -0.1295057773590084 0 255 0 0
1.0848425865173161 -1.5667890548706151 -0.32950577735900854 0 255 0 0
1.0848425865173161 -1.5667890548706151 -0.2795057773590085 0 255 0 0
1.0848425865173161 -1.5667890548706151 -0.22950577735900848 0 255 0 0
1.0848425865173161 -1.5667890548706151 -0.17950577735900844 0 255 0 0
1.0848425865173161 -1.5167890548706153 -0.22950577735900848 0 255 0 0
1.0848425865173161 -1.5167890548706153 -0.17950577735900844 0 255 0 0
1.0848425865173161 -1.5167890548706153 -0.1295057773590084 0 255 0 0
1.0848425865173161 -1.4667890548706155 -0.3795057773590086 0 255 0 0
1.0848425865173161 -1.4667890548706155 -0.32950577735900854 0 255 0 0
1.0848425865173161 -1.4667890548706155 -0.2795057773590085 0 255 0 0
1.0848425865173161 -1.4667890548706155 -0.22950577735900848 0 255 0 0
1.0848425865173161 -1.4667890548706155 -0.17950577735900844 0 255 0 0
1.0848425865173161 -1.4667890548706155 -0.1295057773590084 0 255 0 0
1.0848425865173161 -1.4167890548706157 -0.2795057773590085 0 255 0 0
1.0848425865173161 -1.4167890548706157 -0.22950577735900848 0 255 0 0
1.0848425865173161 -1.4167890548706157 -0.17950577735900844 0 255 0 0
1.0848425865173161 -1.3667890548706159 -0.3795057773590086 0 255 0 0
1.0848425865173161 -1.3667890548706159 -0.32950577735900854 0 255 0 0
1.0848425865173161 1.5332109451293738 0.020494222640991745 0 255 0 0
1.0848425865173161 1.5832109451293737 0.020494222640991745 0 255 0 0
1.0848425865173161 1.6332109451293735 -0.0295057773590083 0 255 0 0
1.0848425865173161 1.6332109451293735 0.020494222640991745 0 255 0 0
1.0848425865173161 1.6832109451293733 -0.0295057773590083 0 255 0 0
1.0848425865173161 1.6832109451293733 0.020494222640991745 0 255 0 0
1.0848425865173161 1.7332109451293731 -0.0295057773590083 0 255 0 0
1.0848425865173161 1.7332109451293731 0.020494222640991745 0 255 0 0
1.0848425865173161 1.783210945129373 -0.0295057773590083 0 255 0 0
1.0848425865173161 1.783210945129373 0.020494222640991745 0 255 0 0
1.0848425865173161 1.8332109451293728 -0.0295057773590083 0 255 0 0
1.0848425865173161 1.8332109451293728 0.020494222640991745 0 255 0 0
1.0848425865173161 1.8832109451293726 -0.0295057773590083 0 255 0 0
1.0848425865173161 1.8832109451293726 0.020494222640991745 0 255 0 0
1.0848425865173161 1.9332109451293724 -0.0295057773590083 0 255 0 0
1.0848425865173161 1.9332109451293724 0.020494222640991745 0 255 0 0
1.0848425865173161 1.9832109451293722 -0.0295057773590083 0 255 0 0
1.0848425865173161 1.9832109451293722 0.020494222640991745 0 255 0 0
1.0848425865173161 2.033210945129372 -0.0295057773590083 0 255 0 0
1.0848425865173161 2.033210945129372 0.020494222640991745 0 255 0 0
1.0848425865173161 2.083210945129372 -0.0295057773590083 0 255 0 0
1.0848425865173161 2.083210945129372 0.020494222640991745 0 255 0 0
1.0848425865173161 2.1332109451293717 -0.0295057773590083 0 255 0 0
1.0848425865173161 2.1332109451293717 0.020494222640991745 0 255 0 0
1.0848425865173161 2.1832109451293715 -0.0295057773590083 0 255 0 0
1.0848425865173161 2.1832109451293715 0.020494222640991745 0 255 0 0
1.0848425865173161 2.2332109451293713 -0.0295057773590083 0 255 0 0
1.0848425865173161 2.2332109451293713 0.020494222640991745 0 255 0 0
1.0848425865173161 2.283210945129371 -0.0295057773590083 0 255 0 0
1.0848425865173161 2.283210945129371 0.020494222640991745 0 255 0 0
1.0848425865173161 2.333210945129371 -0.0295057773590083 0 255 0 0
1.0848425865173161 2.333210945129371 0.020494222640991745 0 255 0 0
1.0848425865173161 2.383210945129371 -0.0295057773590083 0 255 0 0
1.0848425865173161 2.4332109451293706 -0.0295057773590083 0 255 0 0
1.0848425865173161 2.4832109451293705 -0.0295057773590083 0 255 0 0
1.0848425865173161 2.5332109451293703 -0.0295057773590083 0 255 0 0
1.0848425865173161 2.58321094512937 -0.0295057773590083 0 255 0 0
1.0848425865173161 2.63321094512937 -0.0295057773590083 0 255 0 0
1.0848425865173161 2.6832109451293698 -0.0295057773590083 0 255 0 0
1.0848425865173161 2.7332109451293696 -0.0295057773590083 0 255 0 0
1.0848425865173161 2.7332109451293696 0.020494222640991745 0 255 0 0
1.0848425865173161 2.7832109451293694 -0.0295057773590083 0 255 0 0
1.0848425865173161 2.7832109451293694 0.020494222640991745 0 255 0 0
1.0848425865173161 2.833210945129369 -0.0295057773590083 0 255 0 0
1.0848425865173161 2.833210945129369 0.020494222640991745 0 255 0 0
1.0848425865173161 2.883210945129369 -0.0295057773590083 0 255 0 0
1.0848425865173161 2.883210945129369 0.020494222640991745 0 255 0 0
1.0848425865173161 2.933210945129369 -0.0295057773590083 0 255 0 0
1.0848425865173161 2.933210945129369 0.020494222640991745 0 255 0 0
1.0848425865173161 2.9832109451293687 -0.0295057773590083 0 255 0 0
1.0848425865173161 2.9832109451293687 0.020494222640991745 0 255 0 0
1.0848425865173161 3.0332109451293685 -0.0295057773590083 0 255 0 0
1.0848425865173161 3.0332109451293685 0.020494222640991745 0 255 0 0
1.0848425865173161 3.0832109451293683 0.020494222640991745 0 255 0 0
1.134842586517316 -2.416789054870612 -0.0295057773590083 0 255 0 0
1.134842586517316 -2.3667890548706123 -0.0295057773590083 0 255 0 0
1.134842586517316 -2.3667890548706123 0.020494222640991745 0 255 0 0
1.134842586517316 -2.3167890548706125 -0.0295057773590083 0 255 0 0
1.134842586517316 -2.3167890548706125 0.020494222640991745 0 255 0 0
1.134842586517316 -2.2667890548706127 -0.0295057773590083 0 255 0 0
1.134842586517316 -1.5167890548706153 -0.22950577735900848 0 255 0 0
1.134842586517316 1.5332109451293738 0.020494222640991745 0 255 0 0
1.134842586517316 1.5832109451293737 -0.0295057773590083 0 255 0 0
1.134842586517316 1.5832109451293737 0.020494222640991745 0 255 0 0
1.134842586517316 1.6332109451293735 -0.0295057773590083 0 255 0 0
1.134842586517316 1.6332109451293735 0.020494222640991745 0 255 0 0
1.134842586517316 1.6832109451293733 -0.0295057773590083 0 255 0 0
1.134842586517316 1.6832109451293733 0.020494222640991745 0 255 0 0
1.134842586517316 1.7332109451293731 -0.0295057773590083 0 255 0 0
1.134842586517316 1.7332109451293731 0.020494222640991745 0 255 0 0
1.134842586517316 1.783210945129373 -0.0295057773590083 0 255 0 0
1.134842586517316 1.783210945129373 0.020494222640991745 0 255 0 0
1.134842586517316 1.8332109451293728 -0.0295057773590083 0 255 0 0
1.134842586517316 1.8332109451293728 0.020494222640991745 0 255 0 0
1.134842586517316 1.8832109451293726 -0.0295057773590083 0 255 0 0
1.134842586517316 1.8832109451293726 0.020494222640991745 0 255 0 0
1.134842586517316 1.9332109451293724 -0.0295057773590083 0 255 0 0
1.134842586517316 1.9332109451293724 0.020494222640991745 0 255 0 0
1.134842586517316 1.9832109451293722 -0.0295057773590083 0 255 0 0
1.134842586517316 1.9832109451293722 0.020494222640991745 0 255 0 0
1.134842586517316 2.033210945129372 -0.0295057773590083 0 255 0 0
1.134842586517316 2.033210945129372 0.020494222640991745 0 255 0 0
1.134842586517316 2.083210945129372 -0.0295057773590083 0 255 0 0
1.134842586517316 2.083210945129372 0.020494222640991745 0 255 0 0
1.134842586517316 2.1332109451293717 -0.0295057773590083 0 255 0 0
1.134842586517316 2.1332109451293717 0.020494222640991745 0 255 0 0
1.134842586517316 2.1832109451293715 -0.0295057773590083 0 255 0 0
1.134842586517316 2.1832109451293715 0.020494222640991745 0 255 0 0
1.134842586517316 2.2332109451293713 -0.0295057773590083 0 255 0 0
1.134842586517316 2.2332109451293713 0.020494222640991745 0 255 0 0
1.134842586517316 2.283210945129371 -0.0295057773590083 0 255 0 0
1.134842586517316 2.333210945129371 -0.0295057773590083 0 255 0 0
